ply
format ascii 1.0
element vertex 1166
property float x
property float y
property float z
property uchar red
property uchar green
property uchar blue
end_header
  1.21544 -0.382471   1.14416 106 102 99
-0.838831 -0.331172   1.76467 119 115 116
-0.830928 -0.529874   1.77841 82 78 79
 1.41794 0.846077  0.90022 86 81 75
-0.236413  0.108163    1.5416 13 12 10
-0.796093  -0.58389   1.76694 132 131 129
-0.174285 -0.275361   1.55725 1 0 0
  1.12818 -0.262306   1.16084 126 122 121
-0.881679  0.620244   1.68598 106 113 157
-0.56429  1.05347  1.55526 83 82 80
-0.212974  0.156473   1.53037 177 175 180
  1.43571 0.0307991   1.03754 115 112 107
 1.43095  0.77988 0.943299 114 116 94
-0.130846  0.899307   1.43754 99 96 91
-0.587663 -0.427286    1.7007 63 59 58
 1.40762 0.970921 0.866786 149 146 139
 1.46054 0.032258  1.01289 179 172 166
 -0.79885 -0.649198   1.77888 103 103 93
 -0.367123 -0.0952183    1.59787 51 50 48
 1.42122 0.790018 0.913721 130 130 120
-0.245138 0.0574842   1.54981 6 1 21
  0.67961 -0.125529   1.28178 171 166 163
 1.40318  0.96266 0.865509 87 83 80
-0.079729 -0.527348   1.55737 195 192 185
 1.40955  1.10647 0.892591 58 54 53
-0.115716   0.53025   1.46448 165 162 171
-0.203377  0.166814   1.52597 187 183 184
-0.208745  0.187693    1.5226 129 128 123
-0.117118  0.542985   1.46513 152 150 151
-0.270407 0.0697186   1.55068 21 16 23
-0.848659 -0.162867   1.75073 255 254 255
-0.154277  0.297918   1.49765 201 199 202
-0.147039  0.329427   1.48946 177 172 176
  1.46322 -0.625991   1.09271 121 113 110
-0.561565 -0.596962   1.71174 95 91 88
-0.834028  0.288026   1.70428 83 78 72
  1.45376 -0.391373   1.07531 130 127 122
 1.39585  1.10976 0.860025 167 152 131
 1.39091 0.470104 0.997742 106 97 88
  1.23037 0.0663361    1.0956 15 14 10
 1.40243  1.10266 0.874105 102 92 82
  1.33113 -0.650725   1.13053 126 122 121
-0.874918  0.466209   1.69879 50 48 53
-0.238557   0.13212   1.53829 25 21 20
-0.787847 -0.340796   1.75042 72 68 65
  1.37674 -0.325684   1.08879 121 120 118
-0.797367 -0.616929    1.7786 68 66 54
-0.645471  -0.15991   1.68869 141 137 134
-0.644441 -0.159241   1.68526 153 152 150
   -0.6937 -0.0819525    1.69795 142 137 134
-0.196843  0.198162   1.51283 148 143 137
-0.179311 -0.270642   1.55918 36 33 28
  -0.84623 -0.0894788    1.73978 85 83 88
 1.41619   1.0248 0.934843 32 29 22
  1.17804 -0.582729   1.17168 154 150 149
  1.4294 0.677433 0.928312 95 94 73
 1.41653 0.909867 0.883172 76 71 65
-0.0131794   0.148747    1.46701 147 143 140
-0.868714  0.304235   1.71794 121 117 105
 1.42195 0.761197 0.900131 90 87 82
 -0.23669 -0.180129   1.56641 20 20 18
 -0.80214 0.0148051   1.72051 79 75 66
 -0.189634 -0.0850537    1.53867 155 154 150
 1.41274 0.280426  1.01539 125 124 119
 1.15345 0.464576   1.0792 147 143 144
  1.31595 -0.636782   1.13183 78 74 71
    1.46644 -0.00609489     1.02013 36 30 32
 1.36083 0.476771  1.01974 85 81 78
 1.41636 0.963824 0.913299 76 70 70
-0.636208 -0.631794    1.7329 101 97 96
-0.823679 -0.129029   1.73796 127 126 124
-0.418315   1.08986   1.50041 146 142 139
 0.259648 -0.422204   1.44612 86 83 76
 1.14798 0.565219  1.07314 138 134 133
-0.126542  0.436495    1.4863 146 146 146
0.480015  1.10997  1.22329 78 73 67
-0.842361 -0.295687   1.76336 255 254 255
-0.154167  0.308234   1.49906 4 0 5
-0.833128  0.230587   1.70763 155 153 154
-0.237144 0.0872881   1.54299 181 175 177
  1.4189 0.690026 0.891417 63 61 66
-0.770811   0.23975   1.68713 100 96 93
   1.42722 -0.0146097    1.04166 136 135 131
-0.286488    1.0778   1.46369 130 126 125
 1.41703 0.422822  1.00276 10 10 8
1.12487 1.11144 1.01559 118 114 113
 1.41781 0.875472 0.909039 153 152 150
  1.32902 -0.579781   1.12432 134 130 129
 1.43103 0.568364 0.923782 147 143 132
-0.847338 -0.145291   1.75012 49 47 50
 0.677317 -0.602712   1.32442 179 179 179
 1.43846  0.45794 0.986951 103 99 96
-0.265078 0.0734957   1.55222 152 148 145
  1.01618 -0.442662   1.21053 148 144 143
-0.243404 0.0263275   1.54777 165 163 166
1.41874 0.82813  0.8916 78 73 67
-0.816655 -0.463755   1.76886 193 189 190
-0.0204371    1.08799    1.33977 26 22 19
-0.81057 0.548784  1.66554 105 101 98
 -0.24828 -0.161275   1.56612 1 1 0
 1.40639  1.12638 0.927847 148 143 137
-0.681519  0.978342   1.58411 72 68 65
-0.564983   1.07228   1.53011 95 92 85
 1.42405 0.778317 0.917102 204 203 198
 1.42264 0.902894 0.940191 156 155 153
-0.623358   1.06829   1.55356 109 105 102
-0.869636  0.378993   1.70154 69 72 79
-0.636764    1.0704   1.54871 84 80 77
-0.722658   1.04437   1.57729 120 112 109
-0.619828 0.0106521   1.66713 163 159 158
 1.39581   1.1176 0.833206 102 95 89
  1.35668 -0.358161   1.09621 126 122 121
1.34021 0.23236 1.04742 143 139 136
-0.786434  0.927946   1.56142 0 0 5
 1.41061 0.961574 0.876715 142 143 138
 1.42091 0.911655 0.931738 78 74 73
 0.490569 -0.597133   1.37612 169 168 166
-0.104586  0.646369   1.44945 181 177 176
-0.867786  0.260631   1.71312 255 255 255
1.08954 1.02852 1.04049 99 95 92
-0.628987  -0.12986   1.68147 59 55 52
 -0.575031 -0.0917097    1.66061 30 24 34
-0.865443  0.449019     1.694 163 167 168
0.0693708   1.08006   1.34423 53 51 39
-0.178128  0.225103   1.51233 166 162 163
  1.27219 -0.139115   1.10316 137 133 132
 -0.0414147 -0.00606763     1.49042 151 149 150
-0.86802 0.279009  1.71629 114 110 143
   1.26445 -0.0863397    1.09972 151 147 144
-0.0978308   0.724055    1.44085 163 159 158
 1.41243 0.959074 0.894164 148 145 138
 1.40865  1.06923 0.890706 106 97 100
  1.1148 0.112136  1.13121 155 154 152
-0.878831   1.05372   1.61429 33 27 29
-0.0314244   0.840946    1.43636 22 14 11
 1.41839 0.969671 0.923645 136 128 125
 1.43487 0.594395 0.965917 54 50 49
-0.12626 0.497933   1.4653 194 191 186
-0.315567  0.924449   1.48988 155 151 150
-0.525523  0.902451   1.55297 167 163 162
 0.993725 -0.368866   1.21148 112 108 107
0.974427 0.895953  1.08496 126 122 123
-0.834435  -0.45835   1.77623 162 162 164
-0.155819  0.322161   1.48944 7 6 1
-0.855514  0.389079   1.69547 20 18 21
 0.218691 -0.612303   1.46885 148 144 143
 1.42734 0.658991 0.916039 76 73 68
 -0.24209 0.0781001    1.5479 107 106 104
-0.336551   1.08639   1.48288 112 108 105
 1.41539 0.843462 0.885041 66 63 58
0.873722  1.10594  1.10203 133 129 128
 1.17098 0.741828  1.03798 129 125 124
-0.876677  0.538835   1.68768 43 44 46
-0.687915 -0.374525   1.70339 137 133 132
-0.258865   1.00124   1.46632 130 126 125
0.0707486   1.09415   1.31324 114 109 105
1.41287 1.00081 0.90205 146 142 139
0.0432917  0.900696   1.38375 138 134 133
-0.823588  0.259839   1.70097 96 92 91
-0.214451  -0.19299   1.56325 189 187 192
   1.403 0.436977  1.00539 131 128 121
-0.0423116   0.300576    1.46052 94 90 87
-0.0846044     1.0746     1.4081 133 133 131
 1.07661 0.329853  1.11748 130 126 123
  1.37841 -0.420115   1.09753 125 123 124
  1.37621 -0.419456   1.09611 125 123 124
-0.0910585   0.869246     1.4264 93 91 92
   1.46537 -0.0552106    1.02223 64 63 61
 1.41803  1.05621 0.927253 55 47 62
-0.239183 0.0955287   1.54471 3 0 7
  1.35327 -0.650664   1.12438 122 121 119
-0.0851057    1.07084    1.41299 136 135 133
-0.111611  0.647159   1.45428 90 90 82
 1.43393 0.063836  1.03298 76 72 73
-0.0697782  -0.544551    1.55474 115 111 108
 -0.14682 -0.282775   1.55071 165 163 166
0.765634 0.718205  1.17955 148 146 147
  1.32715 -0.102306    1.0794 130 126 125
-0.145628  0.410793   1.48957 151 150 146
-0.83902 0.578576  1.67732 161 157 156
0.956355 -0.28863  1.21394 157 155 156
 1.18408 0.983146  1.01619 114 110 109
-0.114562  0.588416   1.46118 157 156 152
-0.732737  0.147124    1.6846 92 88 85
  1.4379 0.590255 0.956811 59 59 51
-0.781345  0.169667   1.69689 160 156 153
-0.508963   1.09649   1.51934 162 159 154
-0.820738 -0.591162   1.77934 79 78 86
-0.188613  0.199332   1.51057 23 22 28
 1.41278 0.864795 0.955593 90 86 74
0.0528716   1.02473   1.37023 140 139 137
 1.39569  1.12141 0.860884 103 99 88
0.737169 0.916731  1.17434 77 77 75
 1.41883 0.854523 0.901733 73 69 66
 -0.247014 -0.0635892    1.55913 192 187 181
 1.39999 0.247813  1.02178 6 3 0
-0.121231  0.551093    1.4652 137 136 132
-0.590711 -0.329295   1.69122 43 40 35
 1.44555 0.195967  1.01148 112 118 114
-0.847665  0.302524   1.70108 82 80 83
 1.41879  0.93434 0.944924 86 82 71
 1.43174 0.494771 0.911538 27 24 17
-0.330427   1.08255   1.46882 41 26 33
   1.46812 -0.0953427    1.01761 62 58 59
-0.113083 -0.371797   1.54662 173 169 166
 1.42487 0.829432 0.935511 170 165 162
   1.3622 -0.252325   1.08605 124 120 119
  1.38332 -0.582947   1.10991 111 110 108
 1.41841 0.816738 0.898882 169 167 155
-0.114936   0.54818   1.46193 1 0 0
-0.819352  0.510068   1.67575 69 65 62
 1.43078 0.591452 0.920167 143 138 132
-0.387683  0.487178   1.55058 122 119 114
  1.32787 -0.306134   1.10043 135 131 130
-0.250391  0.179636    1.5354 92 90 91
-0.88913 0.809707  1.68675 126 123 116
 1.40535  1.06283 0.863795 137 132 126
 1.43399 0.547913  0.93546 155 152 147
 1.18391 -0.48029   1.1572 158 157 153
    1.312 -0.144093   1.09262 142 138 135
  1.31274 -0.143558   1.09404 93 89 86
 1.42686 0.635498 0.914804 145 143 128
  1.16564 -0.514934   1.17417 102 102 100
-0.234699  0.112502   1.53821 153 149 150
0.137927 0.833323  1.36134 133 129 128
0.819312 0.894282  1.14028 3 0 0
  1.34758 -0.400693   1.10611 102 101 99
0.249809  1.09634    1.274 30 25 19
  1.2766 0.831389   1.0159 50 49 47
-0.00860026     1.08926     1.33272 34 29 26
  1.2566 0.394113  1.05149 147 143 142
   1.428 0.684731 0.909806 72 68 69
 1.00855 0.697819  1.10517 134 133 131
  1.4233 0.799786  0.91404 70 67 58
-0.785736 -0.150016   1.73593 102 101 97
 1.42887  0.67075 0.907009 91 87 76
-0.13951 0.425013  1.46868 8 7 5
  1.4208  0.83034 0.909326 41 39 27
0.932556 0.621162  1.13548 130 126 125
-0.174298 -0.275246    1.5591 48 43 40
 1.41228  1.00571 0.899229 87 83 82
-0.125666  0.530479   1.45981 129 126 121
  1.10388 -0.363669   1.17766 118 118 118
  1.43822 0.0340443   1.03485 63 58 55
-0.0889692   0.878854    1.42832 65 63 64
-0.128428  0.434306   1.49301 6 6 8
-0.687576  0.997432   1.57008 93 90 85
   1.1943 -0.164985   1.13581 71 68 63
   1.21826 -0.0721069    1.11925 104 100 97
 1.00778 0.727516  1.09605 89 80 81
1.41377 1.09614 0.92878 153 147 147
 1.43752 0.352047 0.962008 14 15 9
 1.18477 0.587164  1.05784 120 116 115
-0.777229 -0.426875   1.75357 133 129 128
  1.18456 -0.367529   1.15266 104 100 97
 1.45403 0.293492  1.00024 38 27 25
-0.622449 -0.188445   1.68407 84 81 76
 1.23085 0.506369  1.04983 118 114 115
-0.810283  0.708054   1.65983 139 134 130
-0.882515  0.662737   1.67907 97 95 135
0.518425  1.11276  1.18694 126 122 121
 1.09571 0.608045  1.08906 83 82 80
 0.649309 -0.265781    1.2972 174 170 169
 1.04401 0.772974  1.08563 131 127 126
 1.42714 0.738347 0.924205 93 90 83
1.01981 1.02395 1.06596 77 74 69
0.484172  1.11821   1.2114 125 121 122
 1.42296 0.891045 0.933726 75 71 72
    1.30189 -0.00419452     1.08298 159 155 154
 1.41579 0.350965  1.00784 118 115 110
1.41331  1.0561 0.90694 149 144 141
  1.36601 -0.227233   1.08284 127 126 124
-0.744418   0.90095   1.62117 92 88 87
0.785363  1.10031  1.13619 133 132 130
 1.43253  0.58774 0.925921 105 102 97
-0.827771 -0.446061   1.77122 129 124 120
-0.799542 -0.675527   1.78172 149 145 142
 1.04874 0.487516   1.1157 163 162 160
   1.421 0.835666 0.913087 71 69 57
 1.42789 0.616381 0.914514 148 142 128
 1.41456  0.79586 0.869202 84 81 74
  1.32467 -0.277601   1.09911 140 138 139
  1.34565 -0.658798   1.12806 60 58 59
   1.4753 -0.198142   1.03347 24 23 19
  1.47546 -0.197306    1.0339 47 42 39
 1.43044 0.822771  0.96196 4 6 1
-0.0534423   0.229237    1.46329 176 172 169
0.653729 -0.11067  1.28743 159 153 153
-0.860659  0.594191    1.6815 56 54 55
-0.69448 0.703378  1.62848 114 110 107
 1.39903  1.04975 0.845764 55 48 42
 1.42552 0.774452 0.921955 80 76 75
-0.867114  0.480093   1.69382 154 158 161
0.830422 0.599393  1.17154 135 132 127
-0.858045  0.296008   1.70549 50 48 49
0.991236 0.259392  1.15364 164 160 157
 1.44642 0.305005 0.966843 44 39 35
 1.45795 0.144781  1.00003 54 46 44
-0.843886 -0.195476   1.75199 137 135 136
 1.40787 0.933077 0.863368 85 86 80
-0.775523  0.153182   1.69712 162 161 159
-0.0282981   0.849524    1.43531 40 32 29
1.28556 0.12481 1.07145 148 144 143
 1.41737  1.06347 0.928246 75 71 72
-0.228475 -0.198287   1.56361 17 17 15
  1.25757 -0.404937   1.13149 150 145 141
   1.2997 -0.124886   1.09267 111 108 103
-0.100022  0.706723   1.44739 171 167 168
 1.34033  1.12766 0.831406 64 59 55
-0.818616  0.442747   1.68043 107 105 106
0.608069 0.561269  1.23828 118 114 113
 1.41493 0.937626  0.89679 136 136 128
-0.795245  0.226508    1.6977 101 97 94
 1.09996 0.991328  1.04729 119 115 114
 1.42625 0.810542 0.949281 39 38 33
-0.0973802  -0.458082    1.55358 216 212 209
 1.42215 0.840872   0.9289 69 65 62
 1.42807 0.757368 0.933367 123 126 99
 -0.10042 -0.440079   1.55343 17 16 14
-0.846323   0.29766   1.70704 148 145 140
-0.820277  0.186547   1.70864 75 70 67
   1.46505 -0.0690974   0.995036 82 79 72
-0.107556 -0.427942    1.5537 41 36 32
-0.364577  0.957596   1.50628 122 118 117
-0.414658   1.09634   1.49367 149 145 144
-0.0780511  -0.526448     1.5509 132 131 129
-0.0824247    1.08842    1.40543 14 13 9
-0.766606  0.152893    1.6949 150 147 140
 0.632962 -0.160032   1.29485 169 165 164
 -0.830893 -0.0252113    1.73315 147 145 146
-0.606459   1.07372   1.55429 114 88 91
 0.633544 -0.448586   1.32271 179 174 170
 1.42208 0.824919 0.913551 143 140 131
   0.4603 0.0443422   1.33378 86 83 78
 -0.389619 -0.0843705    1.60232 196 190 190
-0.141766  0.386332   1.48304 108 103 99
   1.1697 -0.493914    1.1678 140 139 137
 1.40083  1.08094 0.853439 141 134 128
0.738571 0.755855  1.17799 146 145 143
-0.258384 0.0833697   1.54711 35 33 34
-0.798495 -0.439824   1.76228 130 125 119
-0.854147  0.643587    1.6752 108 104 103
-0.554416  0.481259    1.5991 151 150 146
 1.15097 0.602921  1.06329 108 104 101
  1.26734 -0.185461   1.11199 129 125 122
-0.239488   1.06066   1.46299 71 68 63
-0.503557  0.844562   1.54839 174 170 169
-0.197172 0.0285535   1.53677 125 121 120
 1.41239 0.181702  1.02665 142 138 137
 1.41218 0.971218 0.887702 152 147 144
1.40073   1.082 0.84894 103 93 92
-0.190175   1.08332   1.44232 106 102 101
  1.48222 -0.335474    1.0455 110 104 104
 1.26272 0.367472  1.05901 60 56 55
 1.17061 0.338339  1.08821 151 147 146
  1.07444 -0.363903   1.18861 87 84 79
-0.12621 0.419651   1.4768 150 146 143
  1.27307 0.0700865     1.077 85 83 84
-0.224536 -0.176319   1.56483 10 8 9
 -0.82195 -0.568455   1.78186 141 133 130
1.14333 -0.4045 1.16913 165 164 160
 1.21478 0.509663   1.0539 118 116 117
 -0.607502 -0.0844012    1.66979 132 128 127
 1.04991 0.474332  1.11178 98 94 93
-0.156126  0.334728   1.49095 132 131 126
-0.260939 -0.134879   1.56938 193 189 188
  1.15521 -0.356001   1.15989 162 158 155
 1.39665 0.814751  0.96496 45 45 37
-0.819065  0.237662   1.70551 80 76 67
  1.13335 -0.422794   1.17381 165 165 165
 1.14802 0.391766  1.08903 155 153 154
-0.729084 -0.637177   1.75217 88 85 78
 1.43365 0.657109 0.944448 62 59 54
 -0.361599 -0.0992217    1.59723 175 171 168
-0.682779 -0.401105   1.72314 83 79 76
-0.103326   0.76552   1.44703 139 138 136
-0.336676 -0.111518   1.59138 73 69 68
 1.41015 0.822233 0.957024 35 41 27
 -0.372153 -0.0938572    1.59955 185 183 184
-0.854051  0.436947   1.69112 157 156 161
-0.256333 0.0252057   1.55492 7 3 0
 0.656903 -0.662758   1.33441 151 146 143
-0.578632  -0.63346   1.71024 90 86 83
 -0.257329 0.00817453    1.55737 161 160 156
 1.06692 0.683013  1.08475 83 79 78
 -0.249926 -0.0238903    1.55446 196 191 185
 1.40036 -0.41122  1.08961 124 124 122
-0.238858 -0.181172   1.56619 151 150 146
1.41344 0.90698 0.89035 121 118 111
-0.624498  -0.18027    1.6842 124 123 121
1.25384 -0.2274 1.11738 123 122 120
   1.3494 0.0516402   1.05814 141 140 138
 1.20163 0.495006  1.06312 121 119 120
 1.19942 0.494504  1.06004 121 119 120
 1.40989  0.94115 0.875051 142 141 136
 -0.504896 -0.0754714    1.63705 177 173 172
 1.42278  0.83658 0.919214 87 84 77
0.103601  0.82289  1.37243 120 119 117
-0.846839    0.2384   1.71154 156 156 158
-0.854548  0.516719   1.68419 42 45 50
0.92525 0.87459 1.10282 97 91 93
-0.817783  0.227243   1.70283 102 101 99
   1.15644 -0.0860828    1.13524 142 138 137
   1.45709 -0.0252823    1.06179 121 120 116
0.555747   1.1118  1.20387 71 66 60
 0.821452 0.0340209   1.22128 145 141 140
 -0.240926 -0.0475014    1.54102 26 21 18
 1.41943 0.756511  0.88358 145 142 133
0.144683  1.08601  1.32867 111 110 106
  1.31757 -0.625609   1.13272 117 116 114
-0.79583 0.152951  1.70383 103 97 99
 1.42473 0.115311  1.02631 72 68 67
-0.827984 -0.410585   1.76337 99 98 96
  1.17881 -0.115801    1.1262 123 119 118
  1.45048 -0.135017   1.04891 47 46 44
-0.260066 0.0810711   1.54341 146 142 139
   1.2263 -0.389983   1.14031 160 156 153
 1.43013 0.618873 0.921266 87 84 79
-0.701276 -0.603023   1.74675 101 98 91
 0.124542 -0.630602   1.50393 161 159 160
    1.128 -0.366517   1.16962 68 65 60
  1.26061 -0.127071   1.09479 121 117 114
 1.40196 0.840615 0.962338 65 62 55
  1.46711 -0.588616   1.08879 86 81 78
-0.679325  0.112068   1.67242 162 158 157
 -0.473268 -0.0729697    1.62837 106 105 101
 1.45529 -0.23941  1.05792 131 127 124
 0.58071 0.546318  1.24165 86 83 78
-0.821167  0.183001   1.70754 152 151 147
-0.798501  -0.58103   1.77394 72 72 72
  1.29694 -0.235396    1.1059 127 126 124
 1.43293 0.673907 0.935273 59 59 51
  1.36154 0.0607096   1.05464 161 160 158
  1.22456 -0.199346   1.12664 158 154 153
 1.42707 0.761406 0.938315 42 40 41
 1.23908 -0.23767  1.12364 133 132 130
-0.00603607    0.988902     1.39647 77 76 74
-0.108392 -0.579389   1.57323 153 149 148
-0.829087 -0.216247   1.75425 87 86 84
-0.791638 -0.531831   1.76612 132 129 122
 1.17816 0.635392  1.05264 121 115 115
-0.739229 -0.133896   1.71655 101 96 90
 1.0428 0.99827  1.0639 120 116 113
 1.42954 0.743973 0.954637 62 59 54
   1.1823 -0.406069   1.15603 143 142 138
-0.826961  0.581558   1.66487 154 150 149
 1.40845 0.218924  1.02342 138 134 135
-0.0965429   0.810518    1.43561 112 111 109
 1.41002 0.720225 0.972176 39 42 33
-0.844417  0.255508    1.7095 84 79 73
 1.40862 0.924526 0.865559 63 62 58
  1.42826 -0.270512   1.06587 89 88 84
-0.793862 0.0659062   1.71191 133 128 122
 -0.246402 -0.0697068    1.55817 200 195 191
-0.205653  0.564776   1.49162 152 147 144
 1.40321 0.418271  1.01319 114 114 104
  1.4212 0.416624 0.999958 107 103 100
  1.23314 -0.397393   1.13982 143 139 136
-0.737195  0.234452    1.6795 105 97 95
  1.17302 -0.527861   1.16982 144 143 141
-0.798305 0.0854604   1.71046 99 91 88
-0.83567 0.527281  1.67749 141 139 142
-0.805308  0.542018   1.66989 88 83 79
-0.836703  0.127595   1.71563 73 69 70
 1.27584 0.232303   1.0638 131 127 126
-0.815742  0.543353   1.67139 148 147 145
 1.42458 0.730105 0.925462 164 163 158
 1.43013 0.336728  1.00338 49 45 36
   1.2785 -0.154946   1.10342 128 123 120
  1.27809 -0.155155   1.10323 120 119 117
  1.26952 -0.331873     1.121 124 120 117
0.460081 0.779412  1.26798 126 122 121
 1.42257 0.835764 0.923828 142 139 134
 1.12346 0.203707  1.11644 155 154 152
-0.835328  0.188823   1.71192 83 81 82
 1.44188 0.119381  1.02401 50 49 47
 1.08915 0.898459  1.06251 117 113 110
  1.35051 -0.378439   1.09928 154 153 149
-0.784488 -0.646496    1.7753 69 65 62
  1.2688 -0.10713  1.08599 136 132 129
 1.42035 0.871795  0.94992 124 119 115
-0.160192   1.07832   1.42787 146 142 139
 1.42046 0.699323 0.888164 114 110 107
 0.696762 -0.638093   1.32038 168 167 165
-0.790011  0.166328    1.7005 100 94 94
-0.577672 -0.570608   1.71232 137 136 134
-0.856098  0.421346   1.69427 158 158 160
-0.770276 0.0837661   1.70503 3 0 0
-0.714559  0.519622   1.64736 153 152 148
  1.28934 -0.503709   1.12879 99 98 96
 1.42255 0.820095  0.91554 72 69 60
 1.42515  0.67906 0.899229 85 87 76
-0.83209 0.531381  1.66152 165 161 160
  1.16969 -0.465512   1.16656 162 161 156
  1.24988 0.0459353   1.09196 95 94 92
-0.164057  -0.27201   1.55211 0 0 0
  1.4213 0.653838 0.974793 97 94 87
  0.965442 -0.0376277    1.18662 121 117 116
  1.10504 -0.557634   1.19434 145 144 142
  1.09368 -0.378023   1.18151 171 167 164
0.205579  1.09237  1.30458 111 106 103
-0.273006 0.0682075   1.55296 202 198 195
-0.772805  0.254159     1.687 158 154 151
 1.44214 0.316751 0.979028 47 28 32
-0.783183 -0.355892   1.75155 114 111 106
  1.21106 -0.364818   1.14414 140 136 133
  1.20896 -0.363888    1.1411 114 113 109
  1.42923 0.0911335   1.03216 92 90 91
 1.43877  0.58979 0.975148 132 128 117
 1.41168  1.06206 0.893388 110 100 108
-0.121881 -0.298697   1.54093 39 37 38
  1.12739 -0.403318   1.17245 86 86 86
 1.41468  1.06542 0.929417 154 150 147
  1.32782 -0.191866   1.09035 148 147 145
-0.871747  0.506186   1.69385 137 140 145
  1.36189 -0.241754   1.08558 154 153 151
-0.665434  0.664401   1.61676 145 141 138
 1.25286 0.508264   1.0426 131 130 128
  1.36797 -0.364264   1.09298 128 124 121
 1.42267 0.885008  0.94357 125 120 116
 1.25668 -0.45055  1.13745 165 163 164
 1.42687 0.488825 0.895602 68 65 58
-0.832828  0.130413   1.71648 14 12 15
-0.812504 -0.586116   1.77792 110 107 100
0.186733 0.591188  1.35953 160 156 155
-0.578959 -0.642898   1.71857 133 129 126
0.867637   1.1219  1.09282 124 119 113
   -0.62154 -0.00181539     1.66524 148 143 140
  -0.7594 0.0845566   1.69841 135 127 125
 -0.80269 0.0866476   1.71117 138 134 133
 1.40595 0.251319  1.01982 115 110 107
  1.4283 0.731569  0.94857 41 38 33
 1.42513 0.854356 0.953111 118 119 114
 1.42646 0.784124  0.93113 118 116 104
 1.06197 0.769533  1.07513 107 103 100
 1.41934 0.853406 0.954621 58 57 53
 1.41664 0.791481 0.876859 138 138 130
-0.831454  0.272011   1.70273 107 107 105
-0.851887  0.403637   1.70341 98 93 89
  -0.765308 -0.00708065      1.7113 62 61 57
 1.40349 0.861329 0.969005 24 22 7
 1.42137 0.746987 0.897286 136 133 126
0.463592 0.997542  1.23952 77 76 71
-0.24218 0.495107  1.49925 171 167 164
  -0.8057 -0.430386   1.76108 30 28 29
-0.284483  -0.54245   1.62196 87 84 79
-0.199931  0.156202   1.52521 59 55 54
   1.01953 -0.0410133    1.16045 156 152 151
 1.41992 0.759091  0.89102 142 139 120
   1.4322 -0.262042   1.06653 78 73 67
-0.824646 -0.159233   1.74392 110 108 109
  1.42399 0.0386081   1.04076 112 109 104
0.120828  0.80428  1.36856 133 129 128
-0.771921  0.523823   1.65844 156 152 149
-0.842344  0.483644   1.68166 150 148 149
-0.274368   1.10016   1.45251 149 148 144
 -0.578224 -0.0937206    1.66388 203 199 196
-0.108242   0.56791   1.45111 119 115 114
-0.0842153   0.912633    1.42179 152 149 144
-0.813864 0.0686246     1.716 103 99 98
-0.804778  0.324476   1.69074 124 120 117
  1.20842 -0.113867   1.11731 133 129 126
-0.861992  0.711179   1.67241 119 115 112
 1.43393 0.556291 0.929444 93 90 83
-0.381397  0.438618    1.5542 177 173 170
  1.4177 0.963204 0.920547 74 69 66
 0.888637 -0.588758    1.2602 162 161 159
-0.712284 -0.646836   1.75677 27 24 19
 1.42114 0.954461 0.916908 97 91 91
-0.688552 -0.503793   1.73506 153 152 150
 1.1359 0.54697 1.07371 29 26 21
-0.105978  0.744149    1.3784 146 141 138
  1.18137 -0.396194    1.1561 124 123 121
  1.18092 -0.396377   1.15391 71 70 68
-0.799888  0.105104   1.71102 144 142 143
-0.652395 -0.595335   1.72503 117 114 107
  0.1715 0.131411  1.42545 115 111 108
-0.762338  0.525016   1.65961 150 146 143
-0.836556  0.489909   1.67899 158 158 158
 -0.80715 -0.341159   1.75255 92 91 89
 1.19203 0.497848  1.06676 153 149 146
0.106207 -0.45959  1.48243 83 80 75
-0.322374  0.747387   1.51236 135 134 132
-0.781706  0.115908   1.70437 117 114 109
-0.843686  0.182995   1.71517 163 153 152
-0.736243  0.539446   1.64552 140 136 133
  1.19596 -0.034613   1.12231 162 158 157
 1.43403 0.589382 0.976561 113 114 100
  0.2068 0.900785  1.34404 56 54 55
 -0.280599 -0.0755201    1.56123 147 143 140
-0.822535  0.230052    1.7047 121 116 113
0.978538 0.696219  1.12287 111 107 104
-0.145647   1.08189   1.42568 118 114 111
-0.145939   1.08234   1.42758 88 87 82
-0.857436  0.522667   1.68436 113 116 121
  1.4391 0.496666 0.947907 69 64 61
 0.9164 1.02455  1.1025 125 121 118
-0.451106  0.819729   1.54253 166 165 161
-0.584219 -0.521106   1.70401 154 150 149
  1.26032 -0.142696   1.11195 137 133 130
-0.830504 0.0149577   1.73081 32 30 31
 1.41292  1.00509 0.942155 73 69 66
-0.852049  0.417178   1.69205 98 96 99
 1.30624 0.333607  1.04286 121 120 116
-0.823971  0.706149   1.65375 89 86 81
1.42407 0.79684 0.92215 35 32 23
  1.20496 -0.374574   1.14565 167 163 162
-0.180346   1.03582   1.43852 172 171 169
-0.077775   1.08464   1.32522 63 62 57
  1.4177 0.330309   1.0105 72 68 65
 -0.833338 -0.0181699    1.73453 158 156 157
  1.42346 0.0978258   1.02722 102 98 97
  1.14645 -0.417556   1.16883 158 158 156
-0.778564 -0.618507    1.7656 64 64 66
 -0.484569 -0.0707619    1.63208 161 157 158
   0.9975 -0.348197   1.20863 139 135 132
 1.43161 0.657101   0.9364 132 128 116
 1.42268 0.857721 0.951717 41 40 38
    1.41 0.403006  1.00571 68 64 61
  1.14543 -0.310498   1.16007 168 162 162
 1.41001  1.00005 0.938732 138 134 131
 0.105254 -0.498143   1.49303 102 99 92
  1.22118 0.0672293   1.09137 147 146 144
  1.37891 0.0598564   1.04666 110 109 107
-0.624271 0.0716083   1.65361 117 114 107
 1.30038 -0.60729  1.13725 153 152 148
-0.0163854  -0.305205    1.50894 171 167 166
  1.23115 -0.129621   1.11885 96 92 89
-0.616583 -0.383887   1.70369 95 90 86
-0.802828  -0.54817   1.77186 96 95 93
  1.13491 -0.614409   1.18844 163 161 162
 1.42644 0.776369 0.957484 74 78 77
 0.0421868 -0.0388432    1.46975 124 123 121
 1.44185 0.465081 0.990206 46 40 40
 1.16523 0.818718  1.04014 123 119 120
-0.852702  0.385686   1.69516 145 146 148
-0.852884  0.571557   1.67716 146 144 145
-0.740117 -0.121681   1.71912 162 157 154
 1.32586 0.197204  1.04776 98 94 91
-0.316269 0.0022887   1.57152 194 190 189
 1.41125 0.148766  1.03071 133 129 128
-0.0938871   0.816471    1.43356 190 186 185
 1.41619  1.03955 0.933794 145 137 135
 1.42647 0.288841 0.993643 61 57 48
 1.15931 0.480339  1.07363 116 115 113
 -0.400231 -0.0766457    1.60478 142 138 135
 1.25449 0.358666  1.06102 129 125 124
 1.41133 0.980752 0.885633 87 83 84
-0.192382   0.21582   1.51313 136 129 123
 1.41625 0.388982  0.99825 30 31 26
  1.31164 -0.038422   1.08073 137 133 130
 1.42632 0.789127 0.933795 66 62 51
  1.31794 -0.107231    1.0875 91 87 86
-0.857625  0.222687   1.71695 182 176 176
-0.793478  -0.36462     1.744 103 99 90
   1.20444 -0.0615083    1.11713 154 150 147
 1.41702 0.960054 0.923701 88 80 77
  1.35635 -0.395452   1.09872 122 122 120
  1.15386 0.0789558   1.11702 154 150 147
-0.112932  0.617386   1.45063 101 98 93
 1.43877 0.439547 0.947494 102 99 94
 1.18272 0.385842  1.07691 135 131 130
 1.09192 0.791589  1.06253 124 123 121
 1.41103 0.858048 0.865116 74 71 66
 1.40999 0.866826 0.956578 40 37 28
 -0.244033 -0.0839893    1.56133 157 152 148
 -0.661919 -0.0821741    1.68615 146 141 138
-0.0204928    1.08239    1.34852 27 26 22
 0.57278 0.682229  1.23831 132 128 127
-0.737731 -0.588834   1.75564 147 146 144
 -0.59397 -0.145117   1.67217 102 98 97
0.00363924    1.04148    1.38892 39 36 31
-0.86784 0.475352  1.69578 110 112 111
  1.26681 -0.147564    1.1067 151 147 144
 0.980573 -0.327709   1.21188 149 145 142
  1.26527 -0.174561   1.11185 152 148 147
-0.820656  -0.38462   1.76335 73 73 73
 1.40675 0.930986 0.950105 96 93 84
 0.630993 -0.583232    1.3367 179 173 173
-0.86122 0.461158  1.69414 61 60 65
  1.38487 0.0615623   1.04465 105 104 100
-0.398941  0.166943   1.58223 170 166 165
0.415941  1.10787  1.25066 72 69 62
-0.866271  0.622736   1.68214 95 94 90
 1.41281   1.0531 0.913429 72 65 57
-0.581872 -0.363855   1.69272 73 69 66
-0.760493 -0.592568   1.76324 163 159 158
 1.41903 0.813668 0.898272 37 34 27
-0.0424343  -0.559429    1.54822 155 151 148
  1.27643 0.0776269   1.08292 174 173 171
 1.15026 0.491497   1.0767 146 145 143
 1.41256 0.998397 0.928766 136 128 126
 1.42149 0.709499 0.970164 102 101 96
 1.41296  1.00577 0.933314 102 97 94
0.508272 0.858102  1.24546 143 137 137
 0.207442 -0.347473   1.44553 153 149 146
 1.39989  1.09601 0.845294 102 95 89
-0.13923  1.05824  1.42424 155 154 152
  1.45634 -0.566448   1.08694 43 42 40
-0.738344 -0.616229   1.75707 93 89 80
  1.44669 -0.151943     1.048 74 73 69
 1.20904 -0.41365  1.14601 158 154 151
-0.830243  0.425729   1.68855 151 150 148
0.101367  1.01789  1.37018 143 141 142
-0.737843  0.164986   1.68511 128 125 118
-0.839896  0.588547   1.67667 147 143 140
  1.23985 -0.179819   1.11647 136 132 129
 -0.837682 -0.0409646    1.73909 38 36 39
-0.771833  -0.57325   1.76226 112 111 109
-0.807049 0.0534645   1.71566 98 97 93
-0.813019 -0.122635   1.74198 152 151 149
-0.825164 -0.205584   1.74938 157 153 152
 1.02021 0.914332  1.07617 79 75 72
-0.128228   1.08439   1.41936 139 138 134
-0.282149  0.379717    1.5243 144 140 137
 1.4018 0.17683 1.02588 138 134 131
 0.882593 -0.332067   1.23974 163 159 156
   1.33949 -0.0109097    1.06383 151 150 148
 1.40941 0.660893 0.977303 57 54 49
-0.348679 -0.267129   1.60962 119 115 114
 1.42494 0.843669 0.943364 40 40 28
-0.201312     1.017   1.46162 102 101 99
  1.19814 -0.184604   1.12931 152 148 145
-0.730497 -0.549061   1.75105 112 111 107
 -0.358409 -0.0983196    1.59495 186 180 180
-0.101939   0.78395   1.44258 167 163 162
-0.255835  0.052632   1.55101 151 146 140
 1.43316 0.564095 0.927834 149 144 141
-0.847509   0.53082   1.68011 101 99 100
  1.43513 0.0988897   1.02816 102 102 102
-0.531632  0.798807   1.55848 170 164 164
 1.42869 0.633156 0.912305 48 45 38
  1.12865 -0.441094   1.17625 163 162 160
  1.32809 -0.215681   1.09385 68 67 65
 1.42979  0.63971 0.920907 83 81 68
0.00102086    1.06565    1.39651 82 81 77
  1.40756 -0.226027   1.06958 147 147 145
-0.693167  0.159665   1.67181 115 111 112
-0.783305 -0.621901    1.7717 133 132 130
-0.781024 -0.620065   1.76608 100 97 90
 1.42225  0.85151 0.928693 114 114 104
 1.37196  0.70478 0.987964 73 73 65
-0.271912 0.0594975   1.55485 167 163 160
-0.538355  0.182117   1.62183 155 154 152
 -0.81431 -0.226457   1.73226 132 129 122
0.945293  1.01713  1.08478 89 86 79
    1.39 0.804081 0.969381 79 75 64
 1.42492 0.848766 0.928189 63 64 56
0.571125  1.11253  1.12093 52 48 45
 1.07416 0.346306  1.12765 155 151 148
-0.809821  0.624892   1.66595 73 72 70
 1.39981  1.00677 0.945623 126 121 118
-0.414206 -0.176841   1.61623 116 112 109
 1.42988 0.605433  0.92683 141 138 133
 1.17669 0.572625  1.05988 115 111 110
  -0.8359 -0.456872   1.77385 255 254 255
-0.130828  0.453239   1.48076 22 18 17
  1.42563 0.0933488   1.02845 80 76 75
   1.049 0.336824  1.12627 154 150 149
 1.41174 0.973611 0.890289 44 43 39
-0.729133 -0.121082   1.71191 100 95 92
   1.26684 -0.0553613    1.09599 153 149 148
0.140933 0.821874  1.34643 97 92 89
-0.254779 0.0952542   1.55466 23 22 17
-0.539991  -0.39096   1.68054 181 175 175
-0.753495  0.161115   1.69076 193 189 188
  1.16535 -0.426345   1.16396 126 122 119
 1.36606 0.474281   1.0134 83 78 74
-0.857045  0.582486   1.67963 109 107 108
0.806084  1.11042  1.13387 71 70 65
 -0.244989 -0.0554942    1.55814 18 14 13
 1.41725 0.948952 0.906092 84 84 74
-0.814864 0.0562474   1.71929 97 92 86
0.610991 0.826272  1.21274 146 145 143
 1.42476 0.823437 0.927283 145 142 133
   1.23432 -0.0677102    1.10713 138 134 133
 1.13422 0.797416  1.04769 113 109 108
 1.40483   1.0879 0.870893 123 119 116
-0.649668  0.125222   1.66102 139 135 134
 1.41483 0.900913 0.888811 138 135 128
-0.254315 0.0828342   1.54837 78 77 73
 1.41612  1.05841 0.921419 137 135 122
 1.10227 0.589662    1.078 89 85 82
 0.143295 0.0265239   1.42905 162 158 155
  1.21743 -0.314207   1.13102 96 95 91
-0.787529 -0.105748   1.72798 151 150 146
-0.760759  -0.30431   1.73906 122 115 109
-0.851487   0.47984   1.68546 94 91 86
-0.727033  0.548445   1.64535 135 130 127
-0.864568  0.322282   1.70941 97 95 98
  1.49182 -0.513714   1.07031 44 42 43
 1.42156 0.959419 0.934535 97 89 87
-0.769992  0.229352   1.68827 140 135 132
  1.28611 -0.172595   1.10184 132 128 127
 1.42306  0.82673 0.918697 90 89 85
 1.41922 0.501698  0.99511 128 125 120
  1.36753 -0.351341   1.09408 147 146 142
 -0.084458 -0.0135566    1.50538 177 173 170
 -0.25017 0.0596888   1.54806 23 19 16
  1.28837 0.0383486   1.07822 165 164 162
-0.815646  -0.41317   1.75786 111 106 100
 1.41452 0.389586  1.00642 120 113 107
-0.842535  0.535553   1.67967 84 79 73
 1.41847 0.678003 0.972347 82 82 82
-0.263613 -0.455166   1.60554 160 150 148
-0.882917  0.674365   1.68448 138 138 130
0.392127  1.10084   1.2491 63 58 52
  1.37981 -0.127595   1.06846 120 116 113
  1.4328 0.679812 0.969856 115 110 104
-0.772585 -0.557305   1.76339 114 110 109
 1.29935 0.249497  1.05586 145 141 140
  1.23458 -0.389946   1.13802 163 159 156
   1.27308 -0.0922532    1.09629 134 130 129
1.04497 0.68749 1.09111 124 120 117
0.333169 0.363972  1.34173 179 178 176
-0.62254 0.105548  1.64721 188 185 178
  0.836764 -0.0980615    1.23361 155 151 150
  0.892413 -0.0559656    1.20879 155 149 149
  1.27659 -0.359163   1.12178 92 91 89
  1.16451 -0.457859   1.16649 137 136 134
 1.44064 0.440384 0.987517 60 58 59
  1.10763 -0.115943   1.15299 128 124 121
 1.43573 0.601029 0.973655 115 112 97
 -0.79045 -0.364495   1.75157 127 122 119
 -0.621067 0.00148294    1.66585 113 109 108
  1.44531 -0.129792   1.04826 109 104 100
 -0.242577 -0.0725097    1.56136 121 116 113
0.670717  0.64395   1.2109 47 46 44
  1.14984 -0.197934   1.14815 154 150 147
 1.14314 0.819142  1.04547 119 117 118
-0.749493 0.0667741   1.69686 124 120 111
 1.13979 0.453661  1.08655 145 141 140
 1.14876 0.745979  1.05166 111 111 109
  1.32478 -0.230929   1.09594 97 93 90
-0.869927  0.639553   1.67717 142 141 137
 1.06571 0.590562  1.08847 140 136 133
  1.21972 -0.302836   1.13466 165 161 160
-0.768225  0.720926   1.64921 137 133 130
 1.42287 0.349702  1.01491 116 117 109
 1.10526 0.467318    1.089 115 111 108
-0.725066     0.139   1.68329 57 56 51
 1.43367 0.580865 0.936361 92 92 84
-0.850614   0.38917   1.69558 134 128 128
-0.749423 -0.413276   1.74656 100 96 93
   1.44449 -0.0703021    1.04913 106 103 98
 0.457737 0.0702787    1.3308 141 137 136
-0.799006 -0.595326   1.76843 90 86 77
 1.42939 0.712928 0.957524 23 22 18
-0.77986 -0.40862  1.75456 145 141 138
-0.815021 -0.152643   1.74165 122 118 117
 1.44149 0.529606 0.981197 65 61 52
-0.833351  0.154344   1.71423 149 141 138
-0.83384 0.154391  1.71566 117 116 112
-0.345302 -0.272098   1.60929 144 143 141
-0.219288 -0.548809   1.60485 141 137 136
 1.05106 0.513117  1.10607 154 150 149
-0.092137  0.843673   1.43605 183 179 178
 1.40799 0.949492 0.860656 75 75 67
 1.15716 0.168686   1.1082 123 119 118
 1.40908  0.91511 0.947065 66 61 55
-0.832836 -0.407071   1.76931 117 115 116
-0.841304  0.665938   1.66607 142 138 135
-0.874538  0.540864    1.6885 154 155 157
 1.41034 0.251137  1.01522 75 70 64
-0.808214  0.245991   1.69635 154 153 151
 1.42835 0.627918 0.908499 92 87 81
-0.846286  0.231127   1.71163 124 118 118
-0.868604  0.667458   1.67406 149 149 149
 1.41628 0.778082 0.879795 79 76 69
-0.629813  0.563901   1.60782 144 143 139
-0.651561  0.489695   1.62496 102 99 90
 0.860474 -0.613888   1.26749 155 151 148
0.0983154  -0.49881   1.49493 182 178 175
0.557649  1.03128  1.21234 111 110 108
-0.16763 0.311959  1.49599 169 165 162
-0.653529  0.431563   1.62893 138 135 130
 1.42898 0.658704 0.922655 137 134 125
   1.30807 -0.0468636    1.08203 118 114 111
-0.866792  0.460422   1.69067 174 175 177
  1.05507 0.0563681   1.14469 78 78 70
  1.25784 0.0767343   1.08735 161 160 158
0.664922 0.856718  1.19226 111 110 108
-0.814019 -0.489552   1.76875 101 101 103
 0.115258 -0.307696   1.46977 98 97 93
  1.26952 -0.443612   1.13246 135 133 134
 1.22378 0.541575  1.04884 130 129 127
-0.708225  0.697817   1.62228 136 132 129
0.700408 0.767121   1.1979 44 40 39
1.46168 0.14525 1.01795 39 36 31
0.58336 0.49896 1.24393 106 102 101
0.97555 0.13867 1.16813 164 160 159
-0.814512   0.35367   1.68924 75 73 74
 1.12141 0.628832  1.07377 113 110 105
0.542537 0.802603  1.23417 84 80 81
   1.4065 -0.647098   1.11319 91 89 90
 1.42808 0.649008 0.913677 117 117 107
 1.41169 0.859886 0.955919 35 34 29
-0.713475  0.163944   1.67831 145 141 132
  1.30827 -0.136168   1.09217 154 150 149
-0.842606  0.120318   1.72071 99 91 89
  1.15996 -0.424347   1.16554 138 137 135
  1.29534 -0.112444   1.09306 134 130 127
 -0.68518 -0.641719   1.74912 92 89 84
-0.734714 -0.106824   1.71373 117 114 109
0.992264 0.678855  1.11002 136 133 128
  1.25386 -0.136347   1.10686 135 131 128
-0.751666  0.367494   1.66824 65 61 58
 1.42326 0.786482 0.920641 64 64 52
 1.43762 0.539703 0.945717 49 44 38
1.42242  0.4296 1.00056 68 67 65
  1.19163 0.0464758   1.11017 165 161 160
-0.829493   0.12589   1.71573 65 65 67
-0.847441  0.361338   1.69654 83 81 84
-0.606161 -0.579934   1.71864 154 150 147
  1.42445 0.0911779   1.03229 71 67 66
 -0.693972 -0.0802984    1.69116 112 108 105
 1.28393 0.221439  1.06511 132 128 125
 0.618738 -0.330495   1.31719 193 189 188
  0.578954 -0.0661878    1.30422 124 120 117
-0.786308  0.417377    1.6735 162 161 157
 1.21342 -0.14479  1.12027 164 159 156
   1.24375 -0.0906254    1.11364 144 138 138
 1.21945 0.734711    1.034 133 129 128
0.802456  1.09502  1.12179 77 74 67
 1.42843 0.601621 0.909064 74 74 66
  1.30478 -0.139079   1.09589 127 123 120
   1.22221 -0.0704318     1.1149 138 134 131
 0.729264 -0.305336   1.28051 142 140 141
 1.11845 0.515152  1.09388 107 102 99
0.829695 0.841252   1.1482 49 46 41
-0.833747  0.163171   1.71456 94 91 86
-0.759078 -0.376081   1.74203 121 117 114
-0.616528 -0.130067   1.67858 128 125 118
 0.438803 -0.206613   1.36072 118 113 109
-0.610938 -0.595298    1.7207 153 149 146
 1.38447 0.413371  1.01299 105 102 93
-0.810059 -0.443518   1.76348 188 186 189
-0.803174 -0.680036   1.77845 55 56 48
  1.45134 -0.263454   1.05869 89 84 78
  1.29615 -0.135184   1.09516 132 128 127
-0.639512 -0.089647    1.6816 179 175 172
   1.31695 -0.0472208    1.08459 70 66 63
-0.826527 -0.528515   1.77618 150 146 147
-0.206128  0.279482   1.51039 131 127 124
-0.735173 -0.613959   1.75859 169 163 163
-0.731256 -0.405067   1.74041 134 127 119
 1.40764  1.11266 0.893763 140 131 132
-0.815231  0.223135   1.70111 128 130 129
 1.40144 0.447206 0.995505 32 31 29
-0.279166 -0.603741   1.62647 176 171 168
 0.47761 0.802711  1.25954 118 114 113
-0.768553 -0.601394     1.763 171 165 165
-0.334004  0.145485   1.56467 188 184 185
-0.208069  0.820095   1.47022 113 112 110
-0.709078 -0.650916   1.75151 96 93 88
  1.43303 -0.171779   1.05714 116 113 108
-0.864092  0.695377   1.67591 64 60 57
-0.797683   0.19184   1.70024 190 186 185
-0.793371 -0.687619   1.78121 122 119 114
-0.628404  0.195297   1.64544 119 116 111
  1.39361 0.0607374   1.04811 116 111 107
-0.621845 -0.184429   1.68415 50 49 44
  1.04532 -0.548631    1.2102 145 141 138
  1.14638 -0.394502   1.16572 57 58 53
-0.801744  0.126403   1.70669 71 69 70
-0.825582  0.545099   1.67294 152 148 147
  1.44278 0.0256802   1.03811 80 78 79
   1.38175 -0.0586113    1.06023 146 145 141
 1.43148 0.674457  0.95963 71 65 65
1.10654 1.01682 1.04351 116 111 108
-0.820113  0.062066   1.71969 94 90 89
-0.781844 0.0256159     1.713 119 115 112
-0.844384    0.4665    1.6912 142 139 134
  1.15301 -0.414222   1.16596 139 138 136
 -0.569737 -0.0917191    1.65845 208 202 204
 -0.400051 -0.0813425    1.60792 145 144 140
  1.25914 -0.108589    1.1038 129 128 124
1.12215 0.13231 1.12099 152 148 147
 0.854808 -0.600487     1.272 142 138 137
 0.649269 -0.664703   1.33864 159 155 154
 1.09681 0.906222  1.04791 133 131 132
-0.263141  0.181303   1.53994 187 185 186
 -0.604708 -0.0255254    1.66427 107 104 99
-0.854406  0.286015   1.70662 106 104 105
0.692648 0.976153  1.17298 79 75 74
 1.42658  0.48514 0.987271 83 79 76
 1.02827 0.464396  1.11911 155 151 150
-0.751419 -0.550041   1.75801 138 133 127
0.652551 -0.64567  1.33564 148 145 140
 1.43522 0.596212 0.938978 170 170 162
 0.635126 -0.420677   1.31424 49 46 41
   1.28108 -0.0783843    1.09233 95 94 90
 1.25015 0.780296    1.019 123 119 120
-0.770472 -0.132372   1.72542 122 118 115
 -0.690215 -0.0542321    1.68596 106 105 103
 -0.653232 -0.0682345    1.68733 149 145 142
1.17837 0.49348 1.06799 150 146 145
0.963591 0.892656  1.09896 62 61 57
1.43133 0.70753 0.96482 96 97 92
 1.42763 0.475412 0.987497 34 30 27
-0.767992  0.426165   1.67258 130 122 120
-0.78969 -0.53912  1.76154 98 95 88
  1.30767 -0.155498   1.09397 143 142 140
 1.29368 -0.14638  1.10433 116 113 108
-0.217665  0.272592   1.51506 182 178 177
   1.08822 -0.0214451    1.14897 159 155 154
-0.126267  0.274992   1.48659 142 138 137
0.423355 0.913332  1.26663 90 89 87
-0.630676 -0.587123   1.72543 88 84 83
0.455564  1.10079  1.23165 117 112 109
-0.775092  0.121851   1.70088 127 126 124
-0.328425  0.696983   1.52111 184 179 176
0.962885 0.656039  1.11784 51 47 38
-0.725383  0.699625   1.63349 130 126 123
-0.795316  0.227102   1.69364 156 152 151
 0.939123 -0.656415   1.25008 142 141 139
 1.42656 0.481888 0.988354 89 88 84
0.956607 0.866785  1.09651 126 125 123
0.764264  1.10049  1.14045 84 81 76
-0.332488  0.801521    1.5038 115 114 112
1.03483 0.27195 1.13651 166 162 161
0.742408  0.71408  1.18611 106 102 99
 1.43116 0.262115  0.99504 25 20 14
 1.41623 0.934344 0.902109 86 81 75
-0.575273 -0.351913   1.68727 114 110 107
-0.843058  0.392401   1.70448 131 128 121
  1.16567 -0.180408   1.14687 151 146 143
  1.34327 -0.158184   1.10599 130 129 125
-0.871017  0.510069   1.69757 76 75 71
-0.134409  0.358322   1.48062 64 61 56
-0.650271 -0.595386   1.73283 100 96 93
0.965026 0.690088  1.11332 50 47 40
 -0.248032 -0.0187659    1.55338 122 118 109
-0.857214  0.418623   1.69236 52 50 53
0.879316  0.98891  1.11365 84 83 81
   1.2866 0.0316395   1.08225 173 172 170
  1.02088 -0.305442   1.19619 150 146 143
-0.736883  0.683778   1.62932 143 142 138
-0.623796  0.124017   1.64861 133 129 126
 0.969499 -0.445011    1.2217 164 160 157
  1.16566 -0.465643   1.16769 165 164 160
 0.13916 0.680906    1.371 165 164 162
-0.807779 -0.565469   1.77573 57 57 57
  1.23057 -0.301175   1.13255 145 141 140
-0.788434 -0.591488   1.77139 36 35 33
-0.675964 -0.549787   1.73667 164 158 158
-0.783126 -0.642242    1.7723 79 78 74
-0.520912 -0.351603   1.67244 173 168 164
 0.767564 -0.319667   1.27461 181 180 178
-0.773751 -0.589609   1.76549 123 118 112
 -0.49618 -0.389777   1.66692 178 173 170
  0.98636 -0.308098   1.21162 159 158 156
0.579537  1.08774  1.19351 121 117 114
-0.622904 0.0557807   1.66052 68 67 63
0.807975 0.503787  1.18159 119 118 116
 1.23292 0.850849  1.01207 124 119 116
-0.627239  0.114999   1.65626 91 89 90
 0.672389 -0.642125   1.32792 179 178 176
0.0933992 -0.408696   1.48609 85 81 78
-0.601956  0.174472   1.61726 165 161 162
-0.241071  0.153534    1.5354 150 146 145
 0.995349 -0.273703   1.20064 163 159 156
 -0.825207 -0.0965128    1.73666 88 86 87
-0.249287  -0.60824   1.61664 144 139 136
-0.860904  0.525305   1.68473 33 33 35
 1.42504 0.663723 0.907541 49 49 37
-0.850554  0.405331    1.6914 124 122 125
-0.205902 -0.108857    1.5516 173 172 170
-0.280231  0.383992   1.52531 115 112 105
-0.100461  0.131195   1.49409 141 140 136
 0.330508 -0.532651   1.43343 123 122 120
-0.323373   0.61148   1.52822 148 143 139
-0.322646  0.611123   1.52348 119 112 104
 -0.55592 -0.376338   1.68104 131 124 116
0.499639  1.06073  1.22341 126 125 123
-0.618095 -0.111597   1.67538 131 126 122
0.613538 0.182478  1.25932 173 171 172
-0.821067 -0.419385   1.76719 147 147 147
-0.547158 -0.344051   1.67852 178 174 171
-0.0895698   0.824101    1.43075 143 142 140
-0.752823 -0.343983   1.73967 183 179 178
-0.726909  0.571074   1.63107 143 140 135
-0.806354  0.191801   1.70352 135 134 132
 0.283104 -0.235695    1.4073 96 93 88
0.0363641   -0.6548    1.5287 145 141 140
 0.205662 -0.434916   1.44339 70 69 67
0.354555  1.09561  1.24562 46 42 33
 1.41862  1.03489 0.932547 96 91 88
-0.629722 -0.395622   1.70763 101 95 95
 -0.10754 -0.046774   1.51538 162 161 159
   0.84378 0.00516051    1.21517 96 95 93
-0.578015 -0.520541   1.70673 166 162 161
 1.42165 0.777217 0.900122 42 39 32
0.0908454 -0.116887   1.46108 78 75 70
 1.42507 0.862976 0.947598 65 61 60
-0.237073  0.114963   1.53892 13 11 12
-0.174508  0.251228   1.51309 59 55 54
0.847727 0.610634   1.1574 146 141 138
-0.788854 -0.352924   1.75244 175 171 170
0.742899 0.880622  1.17309 133 128 125
 0.343383 -0.507926   1.41887 143 139 138
 1.41861  0.86028 0.953046 50 46 43
 0.186718 -0.543745   1.47259 85 82 77
 0.222657 -0.547906   1.46115 114 110 107
0.829897 0.890057  1.14465 84 82 83
 1.41836 0.978007 0.932439 99 90 83
 0.652464 -0.597252   1.33115 199 198 196
-0.673768 -0.232597   1.71226 179 175 172
-0.669131 -0.233712   1.70549 178 176 177
0.586781 0.926559  1.21246 98 97 95
-0.823942  -0.29118   1.75418 144 141 136
 1.03645 0.961316    1.061 117 112 109
-0.182264  0.165072    1.5181 139 135 132
0.839945  1.06662  1.11785 128 124 123
 0.269406 -0.101692   1.40351 167 163 160
 1.42088 0.784761 0.908916 54 51 42
-0.11252 0.486749  1.46517 121 117 116
0.397439 0.853983  1.27498 139 135 132
-0.619882 -0.405024   1.70551 180 175 172
-0.566831 -0.332287    1.6819 159 155 152
-0.824403   0.42386   1.68151 151 147 146
 0.215108 -0.418734   1.44337 85 83 84
 0.278073 -0.266311   1.41786 101 98 91
0.337622 -0.47665  1.41235 144 140 137
  -0.8103 -0.221328   1.74223 118 114 105
0.658165 0.619655  1.22104 116 112 111
 -0.217126 -0.0341769    1.54721 172 171 169
 1.42602  0.85003 0.942589 128 125 116
-0.736463  -0.60489   1.75698 104 103 99
-0.683657 -0.568866   1.74332 65 61 58
 -0.41027 -0.584188   1.66417 173 169 168
 0.178903 -0.503339   1.46155 91 90 88
 -0.190959 -0.0881267      1.544 172 168 165
0.0114591 0.0931479   1.46668 142 138 135
-0.650296  0.551151   1.62761 123 120 115
 0.0942101 -0.0426817    1.45187 130 126 123
-0.815916 -0.184427   1.75459 158 158 158
-0.827565 -0.211618   1.74845 124 122 125
-0.0435729  -0.106446    1.50135 159 158 154
 1.41236 0.919289 0.948619 33 29 20
-0.784312 -0.470921   1.75943 131 128 121
-0.119676 -0.306544   1.54193 99 95 96
 1.40455 0.954333 0.854531 37 34 27
-0.689332 -0.418507   1.72775 120 117 110
-0.0672492  -0.355165    1.53066 174 172 173
-0.0240958  -0.155117    1.49759 46 42 39
-0.575363  0.786637   1.57748 143 142 140
-0.759942 -0.576327   1.76105 58 59 54
-0.699015  -0.67728   1.74849 89 89 81
0.942705 0.669837  1.14732 108 103 99
-0.749434  0.367752   1.66707 154 150 147
-0.80915 0.599969  1.66609 146 142 139
0.304596 0.811182  1.30992 124 120 121
-0.774664 -0.545205   1.75912 123 118 112
 0.962525 -0.286462   1.21377 155 151 152
 1.42208 0.924668 0.940375 118 112 112
-0.113707  0.579969    1.4584 94 89 86
0.0704017  0.802838   1.38897 144 143 141
-0.805606   0.65615   1.65809 138 137 135
-0.482177 -0.424933   1.66662 174 173 171
 0.673124 -0.672064   1.33184 147 146 144
-0.807875 -0.544639   1.76576 106 99 91
-0.748622 -0.527136   1.75492 186 182 183
  1.0459 0.834553  1.06941 93 88 84
-0.80611 0.479508  1.67746 137 133 130
0.203483 0.358702  1.38244 138 134 133
