ply
format ascii 1.0
element vertex 1141
property float x
property float y
property float z
property uchar red
property uchar green
property uchar blue
end_header
-0.780811  0.289445   2.05056 223 192 128
 0.111282 -0.188446   2.87555 224 174 85
 0.116498 -0.197264   2.89118 204 129 27
-1.10482 0.302425  2.03515 222 177 110
  0.32804 -0.100398   2.71781 220 179 100
-0.731367   0.18384   2.23641 209 171 100
0.731441 0.136309   2.2954 219 168 85
  0.132554 -0.0570619    2.64541 202 138 30
 0.159275 -0.164438    2.8331 214 155 61
 0.266794 -0.157859   2.82024 202 129 16
 0.118324 -0.124663    2.7643 204 139 47
-0.563824  0.108331   2.36838 208 156 80
-0.823435  0.307541    2.0189 219 188 124
-0.55657 0.126664  2.33362 202 140 53
-0.373417  0.198821   2.20397 200 150 63
0.108282 -0.18521  2.87098 186 112 13
 0.178015 -0.158592   2.82195 184 109 16
 0.450351 -0.187013   2.86579 223 176 84
 1.11233 0.168006  2.23647 217 166 77
-0.874736  0.368549   1.91277 188 128 66
 0.777851 -0.168845   2.83136 210 143 30
  0.255037 -0.0942612    2.70812 195 138 48
-1.10766 0.563045  1.58503 217 169 95
-0.755594  0.342751   1.95699 216 162 90
  0.739827 -0.0462473    2.61418 213 155 58
 0.492826 -0.186659   2.86626 207 126 9
-0.744224  0.194245   2.21802 225 196 140
-0.53823 0.134561  2.32046 213 169 94
-0.975486  0.310838   2.01768 216 162 74
-0.966848  0.326005   1.99099 211 163 99
-0.812445  0.223201   2.16772 228 191 121
-1.03506 0.322063  2.00025 220 180 111
-0.806822  0.224591   2.16534 210 171 114
0.0724739 -0.159738   2.82685 181 105 17
 0.883436 -0.104251   2.71643 208 139 22
-0.797554  0.226754   2.16091 211 172 115
  0.58549 0.0399811   2.46638 186 143 90
 1.19023 0.313525  1.97581 214 161 69
-0.915044  0.373979   1.90489 204 142 69
-0.932056  0.247026   2.12884 192 125 44
-0.796897  0.286018   2.05765 230 205 151
0.0504767 -0.122904   2.76164 185 116 13
-0.878857  0.368095   1.91459 199 144 80
 0.267367 -0.134468   2.77807 211 146 52
 0.886964 0.0323221    2.4754 216 144 34
 0.171879 -0.161456   2.82748 209 155 59
 0.590897 -0.146904   2.79492 201 119 7
 0.399142 -0.112783   2.73847 190 116 11
-0.536557  0.154006   2.28486 210 152 55
-1.24669 0.368831  1.92644 219 173 87
-0.979484  0.314299   2.01182 212 166 106
   1.13822 0.00953931    2.51586 191 117 22
-0.892659  0.210274   2.19291 224 190 119
 0.317635 -0.143278   2.79221 207 140 23
 0.895225 -0.129158    2.7595 207 139 16
0.158275 -0.21495  2.92231 206 132 11
 1.44657 0.159633  2.24272 216 157 55
-0.787272  0.288575   2.05319 224 192 135
  0.493241 0.00682799    2.52744 215 164 81
0.858693 0.188803  2.20217 222 172 83
  1.18424 0.0524447   2.43803 218 156 53
 -1.0158 0.308575  2.02156 215 167 101
-1.02474 0.266485  2.09547 218 173 106
 1.20396 0.196203  2.18497 196 132 42
 0.571501 -0.171559   2.83841 220 173 83
 0.166805 -0.125499   2.76334 211 157 71
   1.14415 -0.0512718    2.61987 217 162 72
-0.463414  0.205389    2.1944 199 144 62
 0.467038 -0.102288   2.71956 220 174 80
0.0597278 -0.124348   2.76445 200 134 37
 0.328548 -0.141762   2.79061 189 113 15
 1.32011  7.02228 -5.55614 61 58 53
 0.291969 -0.107557   2.73173 199 137 52
0.243763 -0.15801  2.82002 221 171 74
 0.222279 -0.106833   2.73352 206 155 74
-1.15265 0.268463  2.09858 208 151 70
  0.14928 -0.155156   2.81722 189 116 11
 0.177526 -0.234016   2.95562 232 182 85
-0.804589  0.292713   2.04518 186 139 83
-0.804757  0.292773   2.04528 186 139 83
 0.865722 0.0194659   2.49695 232 210 171
  0.398058 -0.0938773    2.70521 191 115 19
-0.685243  0.369155   1.90869 214 156 82
-0.911407  0.405514   1.84859 210 163 95
-0.0277305 -0.0952538    2.71488 160 100 14
 0.648378 -0.112838   2.73491 187 112 10
 0.885205 0.0746505   2.40415 200 138 39
  1.29058 0.0833625   2.38213 202 124 24
-0.88584 0.253482  2.11718 210 156 82
  0.228858 -0.0645959    2.65694 187 117 21
-0.88694 0.372216  1.90663 185 119 58
-0.524733  0.197416   2.20882 219 184 118
-0.0331275 -0.0966731    2.71743 160 100 14
-0.840502  0.398283   1.86111 217 169 93
-0.907679  0.349166   1.94854 210 164 104
-0.993235  0.274456    2.0815 208 160 94
  0.25324 -0.201325   2.89718 207 140 36
-0.818029  0.293409   2.04553 215 176 107
-1.00117 0.277685  2.07618 223 175 103
 0.204574 -0.100398   2.71946 158 96 21
-0.781319  0.194222   2.21627 217 178 109
0.756728 -0.10172  2.71415 213 137 25
  0.611861 -0.0673309    2.65496 202 136 40
 0.341131 -0.142698   2.79195 184 110 5
-0.911442  0.350813    1.9452 178 113 47
  0.295877 -0.0752908     2.6736 147 84 15
0.00220326   -0.13322    2.78166 199 131 30
 0.302759 -0.102347   2.72016 211 163 81
 0.365695 -0.138091   2.78327 222 175 85
-0.961324  0.362891   1.92551 211 161 90
-0.736354  0.223939   2.16463 216 172 99
-1.04989 0.299568  2.03926 218 174 109
 0.516971 -0.121615   2.75262 208 147 56
-0.827904  0.388869   1.87647 217 177 105
-0.976628   0.33635   1.97394 218 174 111
 0.683604 -0.108739   2.72741 175 104 12
0.0847216 -0.183894   2.86909 215 161 65
 0.100283 -0.163588   2.83296 221 165 70
-0.0904948  -0.479509    1.69744 133 119 110
  0.547818 -0.0743774    2.66854 202 126 28
 0.725307 -0.111819   2.73315 215 142 27
 0.778895 -0.154971   2.80683 222 160 59
-0.957697   0.35397   1.94116 222 181 117
  0.639294 -0.0755967       2.67 216 158 61
-0.495646  0.212864   2.18039 205 147 48
  0.380188 0.00608039    2.52972 160 107 27
  1.27847 0.0780819   2.39193 214 158 65
  1.3873 0.204361  2.16824 200 132 33
 0.670274 0.0355958   2.47178 170 117 39
 1.54031 0.420634  1.78446 222 171 80
0.882714 0.156646  2.25591 200 146 60
-0.547567  0.169351   2.25837 209 162 80
 0.959323 -0.157018   2.80566 210 132 6
0.977298 0.191027  2.19663 213 159 71
  0.626801 -0.0788924    2.67553 216 160 65
0.509899 0.042418  2.46395 183 122 41
  0.639016 -0.0280011    2.58409 220 173 85
  0.709793 -0.0183537    2.56662 226 187 128
-0.656153  0.331765     1.974 201 158 103
   0.885375 -0.00733746     2.54729 224 171 75
  0.650208 -0.0333198    2.59575 191 131 45
  0.588734 -0.0160697    2.56571 202 143 51
-0.865858  0.532601   1.62559 227 196 139
 0.165541 -0.384644   1.61958 130 108 94
-0.728363  0.446579   1.77333 189 120 45
0.316476  6.84385 -5.16624 29 28 26
  0.19638 -0.390698    1.5352 82 70 70
-0.373201   7.22632  -5.09493 39 34 28
 0.204579 -0.383526   1.54707 101 81 70
-0.432482   6.97375   -4.8701 34 31 26
 1.56077 0.434731  1.76063 218 164 74
 1.55305 0.428677  1.77131 217 159 62
 1.15238  6.97268 -5.41046 55 51 48
  1.9606  3.50995 -4.20236 93 96 103
0.979437  10.1374 -9.49415 91 79 67
 0.240904 -0.965236   2.24633 77 59 39
-0.637542   2.47859  -3.03291 60 58 63
 0.606464 -0.857559   1.67379 153 141 129
0.167098 0.150404 0.346119 253 255 254
-0.0508583   0.890409  -0.446412 59 60 64
-0.239875   3.10866  -4.04959 239 239 241
0.477552 0.229623  2.13173 210 150 64
 6.80217  2.34343 -1.52256 169 166 159
 7.77595   1.5511 0.413724 244 241 236
 7.77016  1.55104 0.417175 244 239 233
-0.459376 -0.101596   1.75431 62 53 46
  7.7986  2.79205 -0.30349 145 141 132
-0.187554 0.0641434   2.34313 47 33 22
-0.176819 -0.149606   2.20872 183 171 155
-0.282521 -0.280185   1.82361 74 55 40
-0.28944 0.142417  2.21458 47 32 13
 6.62754  1.85811 -1.53429 28 26 40
-0.416218  0.017781   1.86445 62 51 45
 6.65296  2.59674 -1.15597 23 19 16
-0.410571 0.0300693   1.89366 160 149 129
-0.411377 -0.033987   1.83273 61 52 47
-0.360879 -0.176995   1.87403 161 147 120
-0.413887  0.134015   1.92118 59 49 40
-0.306499 -0.216748   1.94606 189 181 160
-0.416946 0.0775827   1.89227 75 65 55
-0.217491 -0.278916   2.06025 174 162 136
 7.72113  2.53224 0.613433 42 20 6
-0.213563 -0.344111   1.91404 77 59 45
-0.422774  0.226474   1.96074 61 49 35
-0.205139  -0.18637   2.13625 66 52 39
  8.30476   3.05565 -0.722285 50 46 43
 0.0714936 -0.0354097    2.15291 196 185 167
 6.74113  2.75915 0.578486 45 38 32
-0.413529  0.169458   1.94719 37 24 15
-0.388718 -0.138358   1.85157 48 35 27
-0.199987 -0.172932     2.167 36 32 29
-0.180436 -0.188724   2.19226 29 21 19
 -0.33704 -0.148957    1.9377 165 149 124
 -0.405555 -0.0505164    1.87027 191 172 142
-0.404793  0.137666   1.95136 191 177 148
 -0.35611 0.0771494   2.02097 198 182 159
-0.333284  0.125289   2.08175 195 175 148
-0.332413 -0.243936   1.76771 124 123 119
-0.166699 -0.226706   2.18225 212 204 191
 -0.164477 -0.0584665    2.28206 208 192 169
-0.230636 -0.167964   2.10396 65 51 42
-0.319804 -0.533653   1.79423 208 205 196
-0.352679 -0.441148    1.7881 192 186 170
-0.202893  -0.27288   2.09522 25 15 13
-0.203682 0.0252989   2.25837 188 164 136
-0.40292 0.193902   1.9726 138 122 107
 -0.369007 -0.0341033    1.93634 33 25 22
-0.251376 0.0993624   2.22259 109 92 74
 -0.172807 -0.0667664    2.26357 201 187 161
-0.322582 -0.510229   1.80353 47 45 46
-0.239906 -0.266269   2.03654 197 186 166
 6.86384  2.12122 -1.66465 167 164 157
-0.282867 -0.204123   1.98609 27 19 17
6.56671 1.70859  -1.462 40 45 65
-0.380462  0.159979   2.01457 190 180 153
-0.365703 -0.156743   1.88745 28 18 17
-0.175043 -0.288204   2.12701 30 26 25
-0.358632  0.222262    2.1208 47 30 12
   -0.171996 -0.000884465      2.29754 224 215 206
 6.41436  2.08517 -2.08807 107 99 86
 -0.16778 -0.274982   2.15541 212 212 202
-0.355795  0.100251   2.03269 195 188 169
 6.34123  1.90159 -2.16285 23 22 30
-0.405369 0.0711877   1.93836 206 195 177
  -0.17486 -0.0871252    2.24491 213 200 183
-0.178025 -0.307301   2.11554 133 117 92
-0.403566  0.122284   1.96213 203 186 158
 -0.342457 -0.0394662    1.97767 184 173 151
  6.6421  1.49756 -1.88111 36 35 33
-0.268674 -0.239047   1.88222 173 164 147
7.93227 1.64041 0.60377 82 60 37
 6.31611  1.97857 -1.85988 113 104 95
-0.167389 0.0786545   2.36727 90 66 42
-0.173782 -0.279833   2.14592 206 206 196
-0.417135 0.0675341   1.91432 199 192 174
-0.366681  0.150661   2.03441 199 183 160
-0.390651 -0.340688   1.77733 148 152 138
-0.171217 -0.226633     2.164 44 39 35
-0.306969 -0.208956   1.83482 182 183 177
 -0.179032 -0.0132992    2.26676 11 10 8
 -0.401392 -0.0122115     1.8803 198 181 151
-0.410537  0.127871   1.98244 25 21 12
  -0.373025 -0.00902734     1.94252 195 183 159
 -0.29818 -0.149711   2.00409 22 18 17
 6.62747  1.48342 -1.76569 164 159 153
 6.54684  1.47416 -1.93551 165 162 155
-0.360023 -0.126881    1.9068 205 190 169
-0.312698  -0.19889   1.95739 36 28 26
 -0.415604 -0.0236285    1.86119 199 184 163
-0.371903 0.0588956   1.99495 30 19 13
  -0.34964 -0.0418288    1.95687 27 19 16
-0.412028  0.118363   1.94602 204 189 170
 -0.30499 -0.122102   2.00482 195 183 159
-0.217264 -0.125728   2.15184 194 183 161
 -0.27708 0.0142909   2.12514 198 178 153
  -0.3873 -0.352042   1.77764 186 187 181
-0.215081 -0.222024    2.1057 201 193 180
-0.239364 0.0512981   2.20899 192 175 145
 6.49341  1.52841 -2.00116 26 24 35
-0.300774 -0.227502   1.95055 192 179 162
-0.241497 -0.151197   2.09819 192 176 151
-0.207778 -0.137089   2.16117 186 172 146
 -0.256616 -0.0922447    2.10117 205 197 178
-0.373607 -0.115457    1.8891 177 160 134
 -0.169196 -0.0394171    2.28836 51 44 36
 6.58142  2.06476 -1.65511 20 26 38
 -0.418155 -0.0944248    1.82487 180 169 151
-0.408364 -0.289377   1.77831 186 191 187
-0.184214 -0.191416   2.15842 63 46 36
 0.292394 -0.122821   2.75483 220 171 78
-0.204539 -0.178087   2.14573 198 187 165
-0.284062 -0.232784   1.97785 177 162 141
-0.352596 -0.192218   1.87958 198 187 169
 -0.21875 -0.409032   2.04182 143 136 117
 -0.386067 -0.0397449    1.90766 173 173 161
-0.410916  0.143847   1.95803 190 178 162
-0.268913 -0.232967   2.01568 18 14 11
-0.346514 0.0814023   2.03934 52 36 20
-0.248612  -0.21027   2.05403 177 166 148
-0.277837 0.0826957    2.1566 200 188 166
-0.249217 -0.108106   2.10439 189 172 146
-0.18318 -0.19321  2.17469 202 189 173
-0.337063 0.0836917   2.05721 167 160 144
-0.295884 0.0952135   2.13094 202 194 173
-0.431963 -0.224493   1.77144 170 158 132
 -0.224421 -0.0591959    2.19179 46 29 21
 -0.40617 -0.102159    1.8403 182 166 140
-0.421435 0.0540138   1.87514 77 61 46
8.08457 0.40364 1.25729 112 70 30
-0.334842 -0.493082     1.783 177 171 155
-0.175122 -0.167049   2.20151 207 204 189
-0.207755 -0.206743   2.11804 38 28 26
-0.391846 -0.120981   1.83851 37 31 31
 -0.291608 -0.0210164    2.08267 143 131 115
 -0.264987 -0.0055649    2.12711 42 25 18
-0.323312 -0.517349   1.80045 52 50 51
 -0.337042 -0.0311197    1.99421 198 187 167
  -0.38723 -0.0598638    1.89694 181 170 148
-0.332151 0.0824858   2.07853 32 22 13
-0.294263 -0.277346   1.80706 172 166 154
 -0.362009 -0.0228676    1.95384 181 167 140
 -0.359819 -0.0798685    1.93285 190 174 151
 -0.175908 -0.0379753     2.2749 205 198 182
-0.354121   0.02157   1.98102 45 32 24
 -0.182244 -0.0454981    2.25886 186 169 139
-0.190438 -0.139893   2.19175 198 185 166
 -0.161458 -0.0187142    2.30152 199 182 164
-0.268269 -0.475882   1.91385 172 168 156
-0.310111 0.0698954   2.10438 40 23 16
-0.349697 -0.188963    1.7874 163 159 148
-0.303786 -0.179015   1.97524 170 155 134
-0.272228 -0.179922   2.03017 185 167 143
 -0.292494 0.00617804    2.09458 49 34 27
-0.374623 0.0892658   1.99621 179 171 152
 6.26863  2.14293 -1.64703 41 52 80
-0.166453 -0.171435   2.21433 175 173 161
-0.223145 0.0391573   2.23094 202 182 155
 -0.207736 -0.0679854    2.20005 204 185 155
-0.381801  0.107174   1.99202 52 35 19
 6.45142  1.98381 -2.02698 19 18 24
-0.353889 0.0261309   2.00531 67 44 26
-0.284224  -0.26504   1.82862 159 157 144
   -0.34429 -0.00541696     1.99667 171 160 140
-0.290097 -0.289227   1.80853 179 172 156
 -0.249058 -0.0822591    2.12234 186 177 148
-0.136988 0.0275662   2.35547 59 50 35
 -0.240956 -0.0415242     2.1696 38 21 14
-0.352922 -0.170274   1.89081 187 176 158
-0.277486 -0.189818   2.01637 186 166 139
-0.365645 -0.181801   1.86204 199 196 187
-0.420729  0.109396   1.90609 74 57 39
-0.372112 0.0195327   1.96626 33 22 18
-0.330253 -0.101829   1.97168 189 174 151
-0.279155 -0.296866   1.82325 180 174 158
1.84714 3.86807 -4.0515 108 105 100
-0.293665 -0.123779   2.02731 60 50 40
-0.255238 -0.274472   1.89048 55 54 52
-0.604189  0.650641   1.42791 220 189 135
-0.411334 0.0127306   1.88778 200 188 174
-0.415867 0.0942631   1.93146 184 167 137
-0.164518 -0.158128   2.22552 211 205 193
-0.308277 0.0561979   2.04891 34 23 17
-0.268682 -0.485428    1.9039 56 50 50
  -0.26409 -0.0858603    2.09364 64 44 33
-0.227747 -0.121194   2.13537 189 182 164
-0.254872 -0.139593   2.07905 165 155 130
 -0.409786 -0.0384667    1.86604 191 174 154
-0.364724 0.0113859   1.97009 198 183 162
-0.208872 -0.182647   2.13706 200 193 174
 -0.358423 -0.0686101    1.93809 59 46 37
-0.388614  0.100069   1.97717 180 169 149
-0.186858 -0.180283   2.17267 230 214 198
-0.304773 -0.156572   1.98541 171 160 140
-0.185364 -0.272108   2.13137 196 197 183
-0.170235 -0.101223   2.24209 218 209 192
-0.300388 -0.524898   1.82942 83 73 71
-0.413026  0.171087   1.96668 161 149 127
 -0.371733 -0.0722011    1.91751 174 158 132
-0.403433 -0.065612   1.85803 33 26 18
-0.180957 -0.123257   2.21729 61 44 34
-0.331509 -0.506118   1.78569 193 189 178
-0.288399 -0.129685   2.03131 184 168 143
-0.166025  -0.30535   2.13606 162 142 118
-0.300507 -0.209325   1.96101 189 186 171
-0.407737 -0.019347   1.87592 191 176 147
-0.419903 -0.252631    1.7769 153 154 146
-0.292046 -0.057929   2.05598 55 36 21
  -0.382921 -0.00982217     1.92518 187 180 164
-0.211849 -0.237854   2.10492 185 170 147
-0.268601 -0.197148   2.02867 201 189 167
 6.32568  2.56004 -1.70527 30 28 39
  -0.307833 -0.00195063     2.06214 165 157 144
-0.168834 -0.141026    2.2285 168 160 139
-0.303312 -0.512266    1.8359 189 178 160
-0.302885 -0.511604   1.83595 188 181 165
-0.340596 -0.142475   1.93211 180 168 144
-0.249334 -0.362852   1.83709 147 132 109
-0.249467 -0.362979   1.83708 146 131 110
-0.303685 -0.288557   1.79055 51 40 38
-0.286825  0.102804     2.183 93 79 66
-0.369926 -0.399272   1.77837 195 195 185
  -0.224864 0.000395643     2.20721 163 150 131
 -0.418528 -0.0709253    1.83294 119 117 105
-0.303422  0.191917   2.19008 26 12 3
-0.330972 -0.149396   1.94487 206 194 170
-0.404559 -0.119727   1.82598 202 190 174
-0.275803 0.0374112   2.15529 42 29 23
-0.253084 -0.095988   2.11182 61 43 31
 -0.252481 -0.0942855    2.11176 61 43 31
 -0.24569 -0.301212   1.87788 169 166 151
-0.272096 -0.229397   1.99985 199 190 173
 -0.203384 -0.0412868    2.22389 178 161 131
 -0.185865 -0.0931395     2.2261 208 196 172
-0.241025 -0.101057   2.12216 62 40 26
-0.255787  -0.24221   2.02128 172 169 152
-0.219548 -0.230373   2.09344 193 178 155
-0.369937 0.0122358     1.941 76 49 38
-0.321119 -0.104538   1.99319 70 60 50
 -0.175761 0.00557545     2.2915 180 173 147
 -0.176028 -0.0638754    2.24695 76 59 51
 -0.42599 -0.121512   1.79061 158 152 140
-0.303976  -0.10918   2.00821 71 57 46
-0.274202 -0.288036   1.83885 164 161 142
-0.370993 -0.155379   1.86793 198 187 169
   -0.22502 0.000168618      2.2072 182 169 152
-0.974653  0.468125   1.74346 203 160 105
 -0.306573 -0.0634192    2.02859 186 179 153
-0.277882  -0.12881   2.04284 76 63 54
 -0.377748 -0.0635503    1.91354 170 158 136
-0.216202 -0.191001   2.12165 205 199 185
-0.259043 0.0223205   2.17734 33 20 12
 -0.238469 0.00820335    2.20066 41 24 17
-0.232562  -0.32596   1.88612 48 35 29
-0.232765 -0.424635   2.00652 125 124 119
-0.275165 -0.472139    1.9037 131 130 125
-0.445732 -0.183168   1.77015 180 176 164
-0.230506 -0.161787   2.11175 180 165 144
-0.225883 -0.286532   2.04848 180 173 154
-0.231645 -0.259813   2.05289 194 181 162
-0.195632 -0.387846    2.0883 179 180 166
-0.371473  0.244351   2.12558 180 126 30
 -0.167321 -0.0126754    2.30057 111 92 77
-0.219881 -0.351379   1.89783 129 117 95
-0.399659  -0.31295   1.77968 161 160 155
-0.240831 -0.302482   1.88885 54 40 29
-0.178361 0.0163081   2.32205 165 149 124
-0.174289 -0.216196   2.17128 57 48 41
-0.188527  -0.36909   2.11148 166 171 167
-0.358894 0.0485874   2.00136 187 179 158
 -0.276371 -0.0178138    2.09597 63 41 20
-0.404186  0.166268   1.97818 157 130 109
-0.208939 -0.357916     1.914 131 111 86
 -0.330548 -0.0892208    1.97351 60 50 40
-0.185347 -0.284844   2.11021 151 136 113
 -0.172966 0.00899273     2.3036 192 183 168
-0.420073  0.179006   1.95741 191 171 146
 -0.331659 -0.0339715    2.00569 68 49 35
-0.223552 -0.113239   2.14734 62 42 31
-0.189923 -0.386033   2.10181 75 66 59
-0.367022 -0.172308    1.8663 64 53 47
 6.29708  2.00921 -2.38924 109 99 87
  0.17551 -0.197169   2.89432 191 121 25
-0.400529  0.175619   1.99088 183 161 140
-0.274391 -0.277301   1.84566 67 49 39
 -0.348003 -0.0825225    1.95772 61 48 40
-0.234933 -0.292979   1.90231 172 169 154
  -0.3244 -0.167807   1.92401 28 22 22
-0.184917 0.0297277   2.28272 18 13 10
-0.210781  0.119852   2.32112 39 22 14
-0.174925 -0.131502   2.22574 65 51 42
 -0.369252 -0.0691255    1.92579 180 163 135
-0.262594 -0.360714   1.81428 117 113 104
-0.415527 0.0771072   1.92608 193 173 149
-0.171924 -0.167215   2.20864 71 59 47
-0.408174 -0.298246   1.77034 163 169 167
 6.42781    2.392 -1.85343 125 122 117
 -0.21356 -0.170523    2.1455 48 36 24
-0.367981 0.0318295   1.97722 162 155 139
 -0.231684 -0.0937629    2.14508 198 191 175
 -0.306538 -0.0991964    2.01276 188 169 139
-0.337291   -0.1841    1.7988 181 174 164
 -0.33677 0.0567981   2.04466 144 132 118
-0.385174  0.126497   2.00215 32 21 17
-0.237976 -0.149425   2.11243 59 41 27
-0.228935 -0.306602   1.90406 170 163 145
-0.426091 -0.112334   1.79389 165 152 133
-0.252397 -0.149311    2.0758 68 51 43
 9.4533 2.60432  2.8908 29 15 6
-0.410909 -0.286806   1.77043 39 33 33
-0.213195 -0.118354   2.16145 72 52 41
 -0.42364 0.0504802   1.88539 167 158 141
 -0.213804 -0.0819366    2.18315 195 183 159
 -0.40352 0.0391158   1.91637 180 173 154
-0.252225 -0.370036   1.82777 134 122 100
-0.178276 -0.246661   2.15438 180 171 156
 -0.321707 -0.0391418    2.01623 65 46 32
-0.318727 -0.114805   1.98893 181 170 142
-0.287296  0.027652   2.11735 64 43 26
-0.177805 -0.133349   2.21751 191 175 159
-0.404528 0.0118584   1.89977 161 153 134
-0.177602 -0.273311   2.13974 59 49 39
 -0.29308 -0.274206   1.81192 172 173 159
-0.324087 0.0631059   2.06449 58 37 18
-0.241709  -0.16416   2.09591 66 52 43
-0.315434  -0.19778   1.93986 190 187 170
 -0.26784 -0.142657   2.06174 64 51 43
-0.186814  -0.21386    2.1546 180 172 151
-0.220632 -0.425506   2.02453 142 145 138
-0.233748 -0.443858   1.98679 49 40 35
-0.420037 -0.126204   1.79902 43 33 32
-0.243459 -0.203418   2.06655 173 161 139
-0.32963 0.214553  2.15492 41 18 4
 -0.323903 -0.0237152    2.03602 48 37 31
-0.375314 0.0879592   1.97763 43 30 24
-0.209513 -0.120342   2.16837 199 187 165
-0.417303 0.0425383   1.89615 77 55 41
-0.243968 -0.373381   1.84035 132 116 90
-0.213687 0.0440366   2.25607 52 38 29
-0.171797 -0.212601   2.18698 52 42 32
-0.156714 0.0584385   2.37452 203 188 159
 8.24862  1.20455 0.166835 92 71 40
-0.321668  -0.10645   1.98576 181 169 147
-0.263797  0.127822   2.24611 115 115 113
  -0.232885 -0.00912475      2.1896 65 47 35
-0.403155 0.0226738   1.90846 189 178 156
  -0.42566 -0.0322412    1.84477 187 179 160
-0.226547  -0.16048   2.12817 50 33 23
 -0.224002 -0.0711182    2.17066 199 192 173
-0.225143 0.0636777   2.25152 87 73 60
-0.184591 0.0221756   2.33835 57 40 20
 -0.179717 -0.0953739    2.23208 215 208 192
-0.223078 -0.434638   2.02188 50 43 35
-0.279219 -0.285321   1.82869 176 173 158
-0.279217 -0.285355   1.82866 176 173 158
 -0.427752 -0.0895334    1.79284 54 50 39
-0.429577  0.180534   2.23829 212 170 86
-0.421202 0.0218718   1.87557 180 174 152
-0.225979 0.0946068   2.28976 16 11 7
-0.167239 -0.346658   2.16084 203 206 199
-0.274944 -0.293838   1.83387 175 171 159
-0.329735 -0.252895   1.76851 141 138 131
-0.385927 0.0280207   1.94191 171 158 139
-0.284312 -0.277008   1.82512 172 173 165
-0.278349 -0.291617   1.82831 88 65 51
-0.301964 -0.218289   1.95389 61 50 44
-0.278647 0.0405418   2.13614 199 183 157
 -0.35168 -0.172447   1.78174 217 217 215
-0.176587  -0.19881   2.18463 37 27 25
-0.217104 -0.284214   2.06804 64 56 45
-0.243493 -0.287056   1.89044 170 168 155
-0.178694 -0.363982    2.1328 162 167 161
-0.265053 -0.468154   1.92216 180 174 158
 -0.338788 -0.0207791     1.9995 63 44 29
-0.423632 0.0366447   1.87706 173 161 139
-0.278222  0.032955   2.13319 192 177 148
-0.172438 -0.355885   2.14229 54 40 31
-0.287171 -0.278647   1.81807 163 159 150
-0.319464 -0.196336   1.82402 41 32 33
-0.389381   0.12968   1.99012 135 128 110
 -0.414284 -0.0324232    1.85606 71 57 44
-0.178335  0.103478   2.37178 168 109 15
-0.21966 -0.34405  1.90315 49 36 28
9.59987 2.30729 2.83234 47 34 18
-0.411462  0.181691   1.97558 186 175 157
-0.310645   0.14127   2.14972 130 100 89
-0.172719 -0.079154   2.25451 26 17 10
   -0.16539 -0.00358482     2.30582 206 199 173
-0.180898  -0.36622   2.12491 65 51 42
-0.252479 -0.287299   1.87261 167 165 153
 -0.244982 -0.0466464    2.14541 149 141 130
-0.411283 0.0391192   1.90411 69 51 37
-0.172264 0.0401015   2.36238 205 192 157
 -0.168977 0.00145993    2.30683 61 52 45
-1.04705 0.367536  1.92023 200 134 48
-0.269082 -0.378982   1.79828 53 45 42
-0.418589  0.250155   2.03727 81 69 53
-0.45727  -0.1496  1.76776 167 155 141
-0.369221  0.229883   2.11105 36 17 3
  0.995021 -0.0194882    2.55096 194 119 18
-0.257292 -0.284333   1.86858 157 158 152
 0.444805 -0.210919   2.90186 202 121 13
-0.25558 0.126847  2.26078 138 130 127
-0.208026 -0.344203   1.92037 127 113 87
-0.406348  0.187246   1.98547 60 49 43
-0.257869 -0.364761   1.82232 57 46 42
 -0.3862 0.177299  2.01845 31 18 10
 -0.24325 -0.299662   1.88388 65 48 40
-0.444894 -0.177756   1.77384 168 168 156
-0.253812 -0.386776   1.81708 125 109 86
-0.178091 -0.043398   2.26638 67 49 37
-0.249351 -0.449939    1.9621 201 198 189
-0.416677 0.0722472   1.92026 61 47 34
    -0.174 -0.0953819    2.24225 89 73 58
 -0.19145 -0.300347   2.09732 46 41 37
 -0.398097 -0.0202983    1.89214 27 19 16
-0.242288 -0.166051   2.08913 188 181 162
 0.747594 0.0444874   2.45044 210 156 56
-0.212559 -0.341371   1.91389 57 43 34
-0.183257 0.0129573   2.28183 200 193 183
-0.245469 -0.382031   1.83101 127 107 80
-0.328644  0.136307   2.11352 157 136 119
 -0.414175 -0.0922122    1.83057 175 168 152
-0.425541 0.0856151   1.90831 203 188 167
-0.253033 -0.378583   1.82337 54 44 42
 -0.28003 -0.374595   1.78476 150 134 118
 -0.221475 -0.0779426    2.17204 194 183 163
-0.414202 0.0212039   1.88556 79 59 50
-0.83027 0.372308  1.90832 204 157 101
 -0.421713 -0.0271625    1.85134 162 145 119
-0.257121 -0.276114   1.87251 173 173 163
-0.368507 -0.109001   1.90206 198 186 162
   -0.2509 0.00363658    2.16566 78 58 49
-0.984719  0.476272   1.72128 224 189 121
-0.246142  0.116353   2.26966 41 31 22
-0.249529 -0.354231   1.83977 53 44 39
-0.167864 -0.305298    2.1349 167 155 133
6.76655 1.56735 -1.5282 156 152 143
-0.272296 -0.493367   1.89631 61 57 54
6.45733 2.04027 -2.1382 109 101 88
-0.242192 -0.304584   1.88175 165 164 146
 -0.35633 -0.179107    1.8811 57 48 39
-0.191917 0.0645727   2.32383 32 22 13
-0.326801 -0.190572   1.81219 164 158 146
-0.280096 -0.391765    1.7774 142 126 113
-0.947561  0.499455   1.69599 221 185 111
-0.141208 0.0712241   2.38161 60 42 20
-0.280889 -0.279441   1.82849 72 54 42
-0.410623  0.230416   2.02297 27 12 7
-0.258854 -0.244243   2.01553 193 190 175
 6.40325  2.04825 -2.31117 109 101 88
 -0.34461 -0.152908   1.78185 60 50 48
-0.166347  -0.14373   2.22086 57 48 31
-0.331663 -0.194267   1.80327 174 170 159
 -0.204972 -0.0125471    2.23504 190 178 154
 6.3515 1.98788 -2.1696 27 25 26
-0.408807  0.194032   1.98192 172 164 151
 -0.350145 -0.0848378    1.94878 154 148 134
  -0.168064 -0.00866972     2.30012 70 57 48
 2.09039  5.45789 -4.12138 48 48 50
-0.461451 -0.144393   1.76309 72 62 53
-0.335415  0.131407   2.09306 55 32 16
0.750452 0.158678  2.24366 220 174 88
-0.338403 -0.189349   1.79464 47 40 34
-0.267771 -0.245858   1.99908 67 57 47
  0.472314 -0.0944359    2.70869 214 147 32
-0.952228  0.292226    2.0339 195 149 87
-0.413999  0.193719   1.97579 84 68 55
-0.374597  0.508795   1.65855 220 200 163
-0.35351 0.150846  2.06478 58 31 14
-0.333727 -0.189593   1.80424 50 42 39
-0.407488 0.0150583   1.89388 69 55 42
-0.361925 -0.170077   1.87815 68 53 46
9.56894 2.29158 2.69451 62 46 30
-0.265605 -0.197048   2.03144 189 178 150
 0.324346 -0.204229   2.90046 188 109 8
-0.335932 -0.138442   1.93947 65 54 48
-0.268402 -0.283485   1.84763 162 162 154
-0.374577 -0.374815   1.78595 186 186 176
 -0.247147 -0.0356133    2.14957 131 119 107
 -0.27571 -0.473385   1.90092 193 189 178
 0.742924 0.0609226   2.42477 157 116 54
-0.414145  0.183705   1.93768 178 165 156
-0.237604  -0.38962   1.84398 124 99 68
 -0.373769 -0.0660914    1.91992 66 53 44
-0.442601 0.0603973   2.44941 204 154 59
-0.402491  0.173053   1.98368 63 53 43
 -0.278901 -0.0132133    2.10708 192 181 159
-0.571155  0.172022    2.2556 193 132 51
-0.216663 -0.186295   2.12345 70 56 45
-0.795946  0.356427   1.94651 219 180 113
-0.646933  0.485212   1.69084 226 195 140
 6.48621  2.08209 -2.35913 108 98 88
-0.284336 -0.271958   1.82617 70 53 43
 -0.359302 -0.0640181    1.94168 61 51 41
-0.404929 -0.301701   1.77325 52 48 45
-0.126072 0.0240192   2.35294 137 123 110
-0.253407 -0.294041   1.86932 159 159 149
  6.5478  2.05877 0.372221 94 81 65
-0.260869 -0.496232    1.8942 132 131 127
-0.400413  0.517456   1.63723 209 182 139
-0.253657 -0.359723   1.82924 57 46 40
-0.330831  0.127047   2.13038 132 125 117
 -0.16236 -0.189259   2.20451 24 16 13
-0.202589 -0.423955   2.04849 128 129 124
-0.222443 -0.274768    2.0637 62 52 42
 -0.234507 -0.0805798    2.14724 42 29 21
-0.366723  0.170174   2.04155 60 38 25
 -0.282374 -0.0105296    2.10236 192 181 161
-0.418484  0.173834   1.93409 80 61 46
-0.305956 -0.307619   1.77776 124 116 103
-0.287755 0.0953222   2.38397 200 138 35
-0.213088 -0.434988   2.02159 154 151 144
 -0.22543 -0.166814   2.11821 190 178 156
-0.336656  0.138233   2.12203 44 31 15
-0.816351  0.434707   1.80065 210 168 110
 -0.163324 0.00818268    2.31945 214 208 192
 -0.232273 -0.0670079    2.15954 169 161 140
-0.416384  0.205067   1.97326 164 155 140
-0.309567  0.159028   2.16542 18 9 4
-0.195711 -0.394024   2.08728 59 45 34
-0.534471 0.0807574   2.41499 198 135 42
 -0.228732 -0.0498146    2.17445 193 186 170
-0.175854 -0.142422   2.21674 64 50 37
-0.243908  -0.35626   1.84827 113 106 98
 -0.176467 -0.0900904     2.2376 93 70 54
 -0.41153 -0.021147   1.86892 188 174 148
  -0.427397 0.000496589     1.85447 181 158 127
  1.0106 0.037245   2.4428 217 163 65
-0.390685 0.0374263   1.93653 27 18 11
-0.406142  -0.13767   1.81268 60 53 47
-0.244799 -0.366332   1.84296 58 47 41
-0.301484 -0.211959   1.85233 42 33 34
-1.00305 0.314451  2.01183 203 142 95
 -0.2562 0.127513  2.27352 151 148 143
-0.348311  0.487774   1.70371 220 201 168
-0.582292  0.506488   1.65428 227 201 144
  -0.41626 -0.0175214    1.86588 71 59 47
0.0792607 -0.146274    2.8091 200 141 41
 -0.169108 0.00035864    2.30091 201 192 177
 0.496525 -0.200841    2.8928 224 175 80
 -0.29831 -0.056642   2.04896 60 41 27
-0.574423   0.63929   1.42859 224 196 149
-0.450418  0.464099   1.75856 214 186 138
-1.02342 0.448551  1.80233 222 182 112
-0.215046  -0.24754   2.09304 199 197 182
0.902571 0.048363  2.44529 224 178 84
-0.204503 -0.346701   1.92583 54 40 31
  -0.30939 -0.0246101    2.04716 45 28 20
-0.189768 -0.122111    2.2039 182 176 160
  1.3501 0.160151   2.2406 217 162 61
-0.178645 0.0178603   2.29385 194 187 179
 -0.20947 -0.337783   1.92197 52 38 29
-0.167191 0.0147629   2.33156 159 146 130
 0.464441 -0.184969   2.86541 225 165 53
-0.175349 -0.223527   2.17521 40 31 26
-0.414109 0.0221254   1.88693 79 61 49
0.244002 -0.19602  2.88816 201 124 16
-0.215474 -0.323444   1.91905 138 132 116
 0.520896 -0.188389    2.8694 222 176 80
 -0.16867 -0.220406   2.18533 44 36 25
-0.535738 0.0998011   2.38129 199 143 69
-0.536227 0.0985411    2.3812 202 146 69
   1.17318 0.00149532    2.53778 217 158 54
-0.223016 0.0566784   2.23913 37 24 18
-0.21218 -0.27384   2.0805 188 189 181
-0.184954 -0.269182   2.13474 72 58 49
  -0.403525 -0.00232856     1.88113 35 28 20
-0.269786 -0.500749    1.8882 47 49 48
-0.285756 -0.372878   1.77885 57 46 42
-0.245961 -0.158751   2.08613 181 173 150
-0.277469 -0.509364    1.8708 37 37 39
    -0.25436 -0.000715988      2.55404 219 179 94
-0.330565 -0.507691   1.78768 185 185 177
 6.60485  2.65986 -1.46493 38 41 56
-0.184246 -0.308477   2.01687 21 19 20
 -1.0012 0.350698  1.94143 219 166 96
  7.60391   1.90607 0.0783987 62 41 20
-0.357736  0.160511   2.07474 89 80 71
 0.394102 0.0279718   2.49741 207 153 67
  0.46857 -0.215354   2.91954 227 177 82
-1.04494 0.447346  1.77935 143 106 79
-0.186672 -0.248664   2.14169 176 167 150
-0.308556 -0.210247   1.94917 79 62 52
 -0.32426 -0.507547   1.83411 86 60 43
-0.503091  0.114977   2.35226 209 155 67
-0.334547 -0.151321   1.93679 64 54 44
  -0.303939 -0.00621285     2.06828 70 48 34
-0.303691 -0.218548   1.95221 76 64 50
-0.272794 0.0631072   2.41794 192 124 13
-0.187112 -0.159515   2.18395 194 191 184
-0.412068  0.216294    2.0124 69 61 50
-0.189106 -0.108983   2.20279 17 13 10
-0.209735 -0.107237   2.17535 194 179 156
-0.424551 -0.082842   1.78381 224 208 175
-0.910914  0.484284   1.70987 197 147 94
 -0.19287 -0.067623   2.22554 32 19 13
-0.174522 -0.275253   2.14814 63 49 36
 0.862111 0.0576339   2.43536 198 144 56
-0.388143  0.459728   1.75001 213 193 158
 -0.190714 -0.0909334      2.216 25 22 15
-0.342761  0.547113   1.58858 219 199 162
-0.388967 -0.348955   1.77121 49 48 46
-0.182659 -0.149111   2.19999 69 59 49
-0.240043   0.12509   2.28532 99 83 68
-0.431695  0.129098   2.32679 196 145 56
-0.212351 -0.354748   1.90574 52 39 33
0.0342083 -0.376759   1.83029 179 154 123
-0.421654 0.0291611   1.87914 76 60 45
-0.255565  0.137769   2.27664 53 31 7
-0.451953 -0.166209   1.76661 136 128 107
 0.342237 -0.176915   2.85135 197 137 41
 -0.182395 0.00383708    2.28007 57 52 48
-0.370477 -0.114909   1.89444 67 57 45
-0.305327 -0.223227   1.94452 75 62 53
-0.197947 0.0465405   2.28723 162 144 124
  0.332127 -0.0508533    2.63073 208 157 66
-0.167678 -0.352613   2.15568 57 46 26
-0.408422  0.113279    1.9411 58 45 37
 1.43467 0.440316  1.74727 231 204 137
 -0.18333 -0.138618   2.20294 60 50 38
 -0.174491 -0.0573097    2.25984 73 55 41
-0.417057  0.191313   1.96809 182 170 156
-0.41644 0.450587  1.77192 200 160 108
-0.160195 0.0980615   2.37094 62 41 14
-0.607414  0.177315   2.25105 225 191 127
-0.242995 0.0154846   2.18527 142 133 116
-0.382054 -0.147005   1.76755 79 72 62
-0.321917  0.487669   1.69675 201 175 138
 1.06219 0.195382  2.19229 214 167 77
 -0.226379 -0.0417925     2.6257 170 105 21
  0.391977 -0.0299676    2.59343 183 125 43
-0.178159 -0.202644   2.17962 200 193 174
-0.373889   0.15565   2.02494 63 41 27
  -0.28978 -0.0138921    2.08894 185 174 154
-0.405367 -0.104983   1.83926 190 177 158
-0.270837  0.131856   2.23905 35 23 9
 -0.409848 -0.0490772      1.863 68 56 42
 -0.424812 0.00417132    2.54295 195 124 8
 -0.37098 0.0458831   1.97443 65 49 34
-0.237472 -0.255745   1.93247 48 38 37
-0.219815 0.0587387   2.27747 132 131 126
-0.407188  0.119447   2.33606 174 106 5
-0.353301 0.0213642   2.00013 72 49 31
 0.320586 -0.143655   2.78534 206 134 26
 -0.121748 -0.0455419    2.63129 179 111 4
-0.200401 0.0793418   2.31347 30 23 15
-0.900777  0.499284   1.68547 225 195 135
-0.306499  -0.50867   1.83076 79 68 62
 0.372355 -0.155048    2.8161 211 154 64
 7.67212  2.19808 0.515927 62 43 11
-0.181341 -0.203856   2.17237 63 54 47
-0.298104  0.191487    2.2043 79 53 26
-0.905303  0.284327   2.06215 217 177 115
-0.281982 -0.378178   1.77991 152 140 124
-0.388059  0.095272   1.97432 173 170 161
-0.268889 0.0964174    2.2288 48 37 19
-0.266228  0.126916   2.24767 165 161 158
-0.426539  -0.10472   1.79748 187 179 166
-0.237627 0.0451006   2.20496 58 42 27
-0.279022 0.0441166   2.13831 205 190 169
-0.374307 -0.133686   1.86116 37 29 27
-0.405322  0.249091   2.05509 82 68 59
-0.181005 -0.199369   2.17364 213 205 194
0.441968 0.174516  2.24024 202 150 75
-0.261684 -0.491966   1.91231 198 199 194
  -0.17739 0.00422707     2.2883 200 192 181
-0.279712 -0.507365   1.86737 141 141 139
-0.405464 -0.116597   1.82766 183 172 150
   0.937708 -0.00591348     2.54609 218 162 67
-0.561368   0.44024   1.79144 219 191 143
 0.223606 -0.211057   2.91745 208 152 57
   -0.498 0.0763517   2.41984 211 160 69
-0.162925  -0.30119   2.13918 149 142 123
 -0.25532 0.0611467   2.18496 191 179 157
-0.228668 0.0998405   2.30321 87 73 64
-0.162214 -0.351593   2.16079 88 84 75
 -0.42332 -0.132341   1.78955 193 184 167
  0.804868 -0.0932218    2.69846 217 162 61
-0.260326 -0.250497   2.01071 70 60 51
-0.187701 -0.249488   2.13884 187 183 171
 0.355471 0.0766757   2.40936 191 129 42
-0.201106 -0.416647   2.05664 49 40 31
-0.365851 -0.161543   1.87463 69 59 50
-0.835866  0.525597   1.64326 230 205 151
0.718846 -0.13724  2.77297 228 184 97
-0.183777 -0.185614   2.17638 43 34 25
-0.199581  -0.41493    2.0616 62 57 54
 -0.161703 -0.0328885    2.60978 173 109 9
-0.361676  0.042718   1.99506 70 52 40
-0.302866 -0.183214   1.97294 187 183 174
-0.406608 -0.286882    1.7823 177 178 172
  -0.42083 -0.0780481    1.82727 156 148 129
-0.564396   0.24648   2.12476 223 188 124
-0.234529 -0.459973   1.97312 172 177 173
-0.359004 -0.183606     1.872 62 53 44
 7.68851  1.80356 0.160822 70 62 51
 0.539307 -0.179413   2.85197 223 170 64
 -0.309581 -0.0157911    2.05227 169 157 145
-0.332897 -0.509506   1.78071 62 58 57
-0.326435 -0.190706   1.81428 154 151 144
-0.280862 -0.383258   1.77858 56 47 40
  1.03499 -0.071525   2.66263 221 163 55
-0.249581 -0.359709   1.84316 51 42 37
-0.806824  0.324342   1.99663 206 149 82
-0.289207 -0.377456   1.77016 56 46 44
-0.0396818   0.049038    2.46604 175 106 11
  1.3083 0.141682  2.28609 211 147 49
 6.46364  1.36425 -1.78263 163 158 152
 0.400416 0.0431323   2.45842 179 123 46
 -0.179757 0.00915932    2.33394 34 25 16
 -0.17913 -0.375486   2.12594 189 191 190
 0.261982 -0.229879   2.94804 220 168 69
-0.275128  0.113604   2.35317 180 120 22
0.647824 0.199079  2.19005 210 159 78
-0.402945 -0.126517   1.82858 42 37 31
-0.228637 -0.312336   1.90041 56 46 36
-0.387621  0.192704   2.02726 60 53 45
-0.449523 -0.168569   1.76917 164 160 149
 -0.44963 -0.168653   1.76921 165 157 144
-0.648574  0.452724   1.76313 206 157 91
  0.944892 -0.0159709    2.56822 202 133 38
-0.382376 -0.164366   1.80614 29 25 26
-0.588499  0.461772   1.74601 222 196 147
-0.230271  0.123405   2.29397 35 16 9
-0.929816  0.528791   1.63539 203 156 100
-0.149005 0.0225234   2.34316 153 131 108
 0.347763 -0.224048   2.93114 211 136 34
-1.02151 0.451282  1.77274 212 193 153
-0.260073 -0.282384   1.86305 58 47 41
-0.667811  0.361042    1.9137 218 184 121
  0.486019 0.00621494    2.52476 203 149 63
0.755755  0.15146  2.26875 202 139 60
-0.195586 -0.180214   2.15673 81 67 56
 1.44205 0.452181   1.7278 177 128 59
 0.178024 -0.175475   2.85573 210 146 38
-0.184237 -0.108062   2.74068 195 131 33
-0.155302 0.0253524   2.50562 214 156 56
-0.289517 -0.276671   1.81531 67 55 43
-0.223493  0.578524   1.52841 219 200 158
-0.312456 -0.312357   1.76479 151 151 149
-0.346265 -0.169981   1.80734 114 105 96
-0.132539 -0.435207   1.90228 60 47 39
-0.421518 0.0410961     1.887 187 184 169
 -0.21554 -0.412191   2.04152 71 58 49
-0.460957 -0.149293   1.76285 88 79 72
0.707388 0.222262  2.14666 212 164 82
-0.249297 -0.478096   1.93966 158 156 141
  1.01987 0.0143045   2.51437 202 127 26
  1.10388 0.0621502   2.40333 212 144 45
-0.712897  0.266023   2.08283 214 167 89
 -0.372366 -0.0519748    1.92827 183 181 169
-0.179487 -0.198844   2.17901 47 37 28
  0.670646 -0.0405503    2.61721 216 163 67
-0.245765 0.0909761   2.23105 40 26 17
 -0.33666 -0.150408    1.9347 68 58 48
-0.169447 -0.157659   2.21705 64 53 35
-0.223491 -0.420795   2.02361 76 63 54
-0.396224  0.186983   2.00473 41 34 24
-0.934639  0.664999   1.40219 219 183 125
-0.345833   0.46954   1.72682 198 164 118
-0.167061 -0.340503   2.16407 60 43 23
-0.269836 0.0977599   2.19882 96 75 58
   1.15137 -0.0350815    2.59126 207 142 38
-0.288283 -0.137539   2.02596 69 54 47
-0.302959 -0.307926   1.78277 154 152 139
  0.468153 -0.0309141    2.59346 210 155 64
0.105608  -0.0532   2.6403 193 128 34
 -0.318177 -0.0891308     1.9983 195 178 152
-0.0937816  -0.436727    1.83002 84 70 59
-0.310874 -0.206202   1.83063 158 160 159
-0.115471 0.0149651    2.3295 144 127 117
-0.272571  0.166091   2.25867 166 107 7
-0.239796 -0.167856   2.09239 65 51 42
 -0.333805 -0.0471415    1.98523 59 50 43
 0.247296 -0.120156   2.74573 222 185 107
-0.241075  0.140461   2.28519 59 41 21
-0.188857 0.0135985   2.27605 15 10 7
 0.512567 -0.145233   2.79244 216 156 58
-0.267902 -0.232517   1.91351 89 82 76
-0.283435 -0.274199   1.82811 69 52 42
-0.39969 0.197442  2.00069 42 33 26
-0.359864  0.446981   1.76988 205 172 121
-0.229307 -0.446735   1.99672 52 45 35
-0.246519 -0.250276   1.94636 124 121 114
-0.646722  0.171727    2.2505 228 190 119
-0.245241 -0.161862   2.08718 188 180 161
  -0.167725 0.000118904     2.30434 44 32 16
 0.114066 0.0210154   2.51827 176 109 20
-0.273415 -0.203605   2.01416 192 185 167
-0.281451 -0.284398   1.82446 73 59 48
-0.170771 -0.273737   2.15432 212 210 198
-0.365046  -0.18404   1.85811 59 52 46
-0.447433 -0.176133   1.77184 61 50 44
-0.332867 0.0766495   2.05984 63 45 33
-0.283981 -0.512002   1.86046 142 147 141
-0.348605 0.0230819   2.51657 205 142 45
  -0.42225 -0.0776139    1.82402 67 58 49
    1.07086 -0.00275855      2.5316 198 126 28
-0.314734  0.104805   2.10504 209 195 169
 -0.268191 -0.0658372    2.09686 169 161 150
 1.33308 0.414932  1.79784 230 201 133
-0.510448  0.526428    1.6229 225 197 147
 6.35061  2.81082 -1.69496 102 81 60
-0.305833 -0.522992   1.82201 77 63 60
-0.302214  -0.53932   1.81221 121 115 101
-0.279569 -0.375939   1.78654 157 142 123
-0.191883 0.0492257   2.27433 49 44 38
-0.37928 0.120839  2.34228 198 139 35
-0.380621  0.488033   1.69868 192 151 99
-0.0896026 -0.0946195    2.71725 194 132 33
0.0830785 0.0799091   2.40498 180 115 13
-0.235529 -0.257259   1.95861 70 71 66
 -0.190802 -0.0215578    2.59123 184 114 3
  0.998662 -0.0147926    2.55033 196 124 26
 0.679731 -0.109352   2.72671 197 128 27
0.986554 0.116201  2.33318 207 151 64
   -0.16939 -0.00739862     2.29686 217 207 195
-0.284111  -0.49186   1.87904 65 55 53
-0.283129 -0.291194   1.81725 74 57 49
   1.0676 0.0268513   2.48774 220 162 62
 -0.42779 -0.114351   1.79156 217 208 199
 8.16167  1.24277 0.207238 155 132 101
 0.177035 -0.130443   2.77742 185 115 17
-0.351251 -0.156488    1.7866 20 20 22
-0.425561  0.220825   2.00751 58 43 24
 0.692722 -0.162747   2.82123 214 139 24
-0.267026 -0.153422   2.05464 179 172 156
-0.168005 -0.298617   2.13932 20 19 17
-0.214885 0.0553733   2.28063 50 37 28
 -0.17345 -0.103138   2.23777 213 201 189
 -0.398154 -0.0918694    1.85785 167 155 133
-0.250901 0.0893459   2.22645 130 107 91
-0.261095 -0.486743   1.91462 55 50 46
-0.403456  0.163647   1.97992 197 178 148
-0.140552 0.0390376   2.36089 111 94 74
-0.311235 -0.203891   1.94637 76 64 52
-0.378586 0.0655921   1.97719 151 142 137
-0.225343 0.0585848   2.25589 148 132 109
-0.671362  0.442339   1.77818 207 163 100
-0.670537  0.443825   1.77763 224 192 145
-0.327358 -0.253023   1.76998 165 162 155
 6.2926 1.81084 -1.6616 46 55 88
 -0.349214 -0.0671933    1.95894 205 188 168
-0.334485  0.122748    2.0782 200 187 171
-0.440376  0.225911   2.13961 179 119 21
-0.202213 -0.418778   2.05406 56 46 37
-0.261814 -0.145705   2.06685 191 184 166
 0.100685 -0.275985   3.03156 198 123 6
 0.100124 -0.276254   3.03129 198 123 6
-0.185956 -0.367482   2.11834 59 49 39
    7.7292    1.72589 -0.0390589 91 62 44
-1.04081 0.466502  1.75074 224 189 125
-0.128794 -0.436534   1.89216 62 48 39
-0.371268 -0.157782   1.86689 215 211 200
9.34877 2.12692  3.6837 82 55 34
  0.459699 -0.0781939     2.6785 200 128 30
-0.427638  0.360953   1.92063 187 141 79
 0.741716 -0.104083   2.71264 223 177 83
 -0.18349 -0.170932   2.17486 29 20 15
-0.322241 -0.528295   1.79415 192 187 183
-0.407727   -0.1245   1.82137 208 200 187
-0.36487 -0.17342  1.86946 57 48 39
0.870049 0.103045  2.35473 203 155 73
-0.114099 0.0172727     2.343 165 164 160
-0.156692 -0.327895   2.04372 23 19 20
 -0.405637 -0.0980391    1.84299 56 43 35
  -0.166227 -0.00235236       2.306 209 203 189
  -0.308547 0.000802645     2.06355 187 179 160
-0.364381 -0.401252   1.78958 62 61 56
 0.154537 -0.172844   2.83857 203 132 26
-0.274055 -0.492846   1.89305 60 54 54
-0.0820959  -0.372644    2.04284 105 89 76
 0.122244 -0.108706   2.74118 203 146 56
  -0.385052 -0.00339462     1.92334 65 46 32
-0.713452  0.431753   1.80029 223 192 138
 -0.20468 0.0581208   2.30872 41 31 21
  0.68552 -0.133067   2.76717 200 128 20
-0.180185 -0.361204   2.13047 58 39 32
 -0.326652 -0.0501527    2.00137 207 192 169
-0.266106 -0.482343   1.91221 65 60 56
 -0.364167 -0.0157097    1.95435 62 43 28
-0.174012 -0.119212   2.23128 227 214 197
-0.277943 -0.283088   1.83195 60 48 34
-0.219757 0.0775523   2.30389 52 43 38
-0.942723  0.343671   1.95907 212 164 102
 -0.203726 -0.0443863    2.22078 193 182 164
-0.618004  0.377532   1.89173 216 184 127
 0.439635 -0.182578   2.85993 212 138 31
   1.03517 0.00350604    2.52289 216 158 59
-0.531284  0.334945   1.96998 220 176 103
 0.695139 0.0739273   2.40149 142 101 45
-0.327889  0.140494   2.09701 36 21 14
 -0.156449 -0.0562187    2.28923 77 63 50
  0.329927 -0.0730868    2.66714 211 156 63
-0.431601 -0.223001   1.77284 196 192 181
-0.899729  0.386975   1.88031 218 177 111
-0.272421  0.534977   1.61954 219 201 165
-1.03896 0.448872  1.77759 207 187 150
 7.60487  1.67645 0.242383 114 106 95
-0.224915 -0.440467   2.00888 48 39 30
-0.180781 -0.370467   2.12561 56 42 33
-0.864803  0.405895   1.84354 205 151 87
-0.367821  0.179007    2.0648 116 95 78
-0.323028 -0.526896   1.79217 63 58 54
-0.243561 -0.378555   1.83717 52 43 38
-0.441655  0.270875   1.98851 135 119 103
-0.250209  0.102082    2.2646 75 62 53
-0.241567 -0.396527   1.83279 110 86 60
-0.238789  0.565984   1.56066 209 185 141
 -0.309431 -0.0012089    2.06118 192 180 164
-0.254324 -0.245925   1.90306 166 169 162
-0.409049  0.018242   1.89448 60 47 30
-0.354195  0.170436   2.08656 32 23 14
-0.989734  0.338921   1.96792 209 158 92
 -0.194908 -0.0741018    2.21916 89 70 55
-0.165375 -0.107583   2.25039 229 222 212
 -0.35886 -0.171906   1.88004 190 186 175
-0.430275 0.0226335   2.51561 201 143 44
-0.290727 -0.517973   1.85014 131 132 134
 0.0607645 -0.0298741    1.99383 70 60 50
-0.202548 0.0539985    2.3194 45 32 26
-0.212861  -0.41102   2.04662 199 199 191
-0.335371  0.169652   2.14398 15 5 3
 -0.160233 -0.0511254    2.64044 186 123 17
-0.459197 -0.152754    1.7608 168 165 156
 -0.0417767 -0.00396129     2.55467 144 79 13
-0.131343 -0.375347   2.09199 47 38 29
-0.164913 -0.384373   2.11535 214 179 123
-0.913688  0.669455   1.39026 226 191 135
-0.211734 -0.276805   2.07904 45 35 26
 -0.225217 -0.0154261    2.19972 182 171 151
-0.291229 -0.278782    1.8104 61 51 41
 0.540826 -0.047603   2.62188 191 127 53
-0.822266  0.400691   1.84839 221 183 121
-0.365808 -0.115412   1.90123 62 52 43
-0.296385 0.0358055   2.10228 196 185 163
-0.510792  0.407383   1.84371 221 193 145
 -0.274355 -0.0383001    2.10231 203 190 174
-0.275368 0.0805865   2.15977 200 190 165
 -0.25106 -0.142027   2.08518 67 50 40
  0.581817 -0.0108556    2.55615 180 121 45
 0.707508 -0.113651   2.73625 228 185 93
 1.14622 0.122746  2.31812 211 143 42
-0.173894 -0.351348   2.14788 52 42 30
  0.401684 -0.0778548    2.67917 215 165 78
-0.361331 -0.171626   1.87732 52 44 31
-0.361306 -0.171612   1.87732 49 41 30
 -0.358885 0.00610064    2.54195 202 146 51
 -0.21492 -0.342677   1.90987 55 40 33
-0.314018  0.047982   2.46927 182 120 33
-0.280022  0.103868   2.37264 195 136 36
-0.380616  0.202466   2.08512 126 101 81
-0.341172  0.184628   2.22896 172 106 9
-0.371851 -0.119006   1.89199 200 188 164
  -0.2276 -0.160212   2.11694 189 177 155
-0.345564 -0.184022   1.78808 40 36 33
-0.270531 -0.203464   2.02043 163 148 119
-0.159833 -0.114467   2.25511 33 21 9
-0.374325  -0.04675   1.92738 198 195 178
-0.251557 -0.365754   1.83192 58 49 44
  0.662547 -0.0712545    2.65815 205 141 44
  0.53176 -0.157027    2.8136 220 163 60
-0.232256 0.0851517   2.26883 125 108 82
 -0.288309 -0.0689073    2.05834 203 190 173
-0.311783 -0.305951   1.76921 180 181 175
-0.26962 0.522084  1.63756 203 175 128
-0.110362 0.0303219   2.49571 180 111 10
 -0.278047 -0.0989213    2.72491 191 123 22
-0.494893    0.3172   2.00026 208 160 84
 -0.176144 -0.0978805    2.72111 171 106 4
 0.0303908 -0.0454304    2.62694 177 111 15
 -0.37879 -0.148205   1.77163 110 102 89
-0.366761  0.457212   1.74947 195 159 107
-0.387701 0.0755861   2.41962 194 146 74
-0.39965 0.174687  1.98973 195 177 153
 0.539146 -0.216873    2.9223 226 172 66
-0.280798 0.0780239   2.41051 186 119 12
-0.392367  0.136955   2.29626 170 100 2
-0.931596  0.481118   1.71544 187 139 90
  -0.241028 -0.00329285     2.17852 181 174 156
8.95817 3.21906 2.05974 123 110 94
