ply
format ascii 1.0
element vertex 1158
property float x
property float y
property float z
property uchar red
property uchar green
property uchar blue
end_header
  0.19456 -0.217154   1.33621 224 234 235
0.0741028  0.306612   1.58964 204 205 197
0.048043 0.310426  1.58886 215 217 216
 0.323966 -0.145816   1.42815 214 238 242
0.0711754  0.283266   1.57192 48 38 46
0.171546 0.641723  1.59242 113 122 121
-0.265258   0.58201   1.61746 130 120 119
 0.167977 -0.199725   1.34586 220 230 229
0.611526 0.260453  1.80566 29 25 26
 0.307968 -0.150252    1.4181 228 242 251
 -0.029617 -0.0505272    1.45221 226 109 151
0.184401 0.687869  1.56413 31 40 45
-0.00192138    0.238942     1.52457 5 7 2
0.0112304    0.2517   1.53192 22 22 20
-0.0914649 -0.0356885    1.44022 213 105 141
  0.326953 -0.0386928    1.62534 189 224 82
-0.136833  0.159738   1.52626 58 73 66
0.103357 0.345615  1.62667 186 146 144
-0.198872   0.11169   1.51382 130 30 58
0.0176247  0.561218   1.62582 177 125 50
0.00535334   0.291576    1.56526 9 10 12
0.422412 0.237925  1.55707 54 99 34
0.0927565  0.545419   1.62753 36 37 39
-0.294792  -0.22518   1.36612 141 131 132
0.261638 0.629308  1.60701 36 26 16
  0.54412 0.0282457   1.63749 184 191 183
0.00605735   0.363499    1.62346 29 24 18
0.0808917  0.573135   1.61822 47 47 45
0.218664 0.664605  1.60129 147 150 143
-0.0626595   0.534834     1.6395 34 38 41
  0.56582 0.0227718   1.62304 208 229 222
 0.243745 -0.252328    1.3315 218 229 231
 0.502184 -0.120849   1.52087 208 227 223
-0.209868  0.148162   1.48719 102 179 187
   0.451541 -0.00153871     1.56219 197 212 209
0.474924 0.264385  1.60227 141 134 141
 0.591668 -0.274126    1.4445 174 174 174
 0.549409 -0.150588   1.50573 216 221 215
0.133889  0.60647  1.59692 93 115 126
-0.166529 0.0863119   1.50445 59 169 196
 0.267726 0.0190926   1.62134 104 79 15
-0.12088 0.489747  1.64301 25 75 148
0.0711647   0.34918    1.6242 154 134 133
 0.489169 0.0587271   1.66842 193 212 206
-0.259312  0.121438   1.49843 211 95 132
-0.347994 0.0274483   1.39678 185 117 142
0.492133 0.064053  1.67944 71 67 68
0.518167 -0.13484  1.51233 225 219 207
-0.206299 0.0755871   1.48322 222 86 136
0.284377 0.656122  1.60951 164 174 165
 0.575966 0.0128708   1.62338 196 201 194
-0.191608  0.331646   1.63743 25 73 31
-0.225624  0.125112   1.51169 86 133 163
    0.462873 -0.000312063      1.51603 83 80 75
0.0759707  0.228038   1.53069 77 1 1
0.105809   0.5302  1.64583 30 72 52
0.244503 0.479586   1.6732 38 83 16
-0.263546   0.52813   1.62993 28 27 32
 0.507859 -0.122443   1.48569 212 222 221
 0.457145 0.0392737    1.5822 192 219 214
-0.000487944     0.701927      1.59455 147 155 144
 0.508983 0.0727646   1.69293 170 182 178
0.0768859  0.235205   1.53569 91 0 0
 -0.121714 -0.0290309    1.43379 65 183 213
 0.552391 -0.153927   1.47554 195 209 212
0.0998891  0.237609   1.54402 129 0 0
  0.452843 -0.0112815    1.59597 205 221 220
0.419786 0.273806   1.5793 88 140 65
  0.28095 0.0275606   1.63128 206 241 111
 0.530828 0.0340177   1.64573 127 119 108
0.00524448   0.508881    1.65591 39 71 56
 -0.15526 0.0999595   1.52224 113 177 202
0.421981 0.179066  1.58158 126 194 109
0.252071 0.644488  1.60393 126 123 114
 0.487119 0.0511701    1.6538 179 198 196
 0.172211 -0.211478   1.40102 187 188 180
-0.0137217   0.729543    1.59173 121 117 114
-0.216217  0.117328   1.51237 102 174 198
 0.282399 -0.287632   1.32615 212 226 227
-0.294272  0.266725   1.59994 113 167 177
 0.155033 -0.172656   1.37848 183 189 185
-0.240034  0.124817   1.50808 104 177 184
 0.610961 -0.281603   1.47664 191 193 190
0.251773   0.6754  1.60271 136 134 135
  0.54117 -0.148298   1.48456 182 192 194
 0.647807 0.0339357   1.71273 131 136 140
-0.0930386  0.0840997    1.53179 85 180 200
-0.218892 0.0974203   1.49587 107 174 193
-5.00969 -1.25541  2.58462 78 40 27
 0.189891 -0.217333   1.38419 161 166 162
0.438483 0.251542  1.59062 72 134 51
-0.0228704   0.199312    1.48617 169 127 111
 0.243988 -0.241265   1.35789 212 225 218
-0.316485  0.143756   1.49439 202 78 115
-0.179423 0.0996738   1.51185 158 163 193
0.0288178 0.0320084   1.53849 136 197 216
 0.200571 -0.212506    1.3468 195 214 212
0.424486 0.299327   1.5821 114 171 92
 0.476596 0.0569715   1.63779 152 168 165
0.242636 0.440492  1.67566 97 148 73
-0.0337058  0.0478821    1.52836 126 197 215
0.291897 0.624686  1.61651 138 141 132
-0.00601542   0.0223404     1.51769 207 156 163
0.430928 0.256146   1.5733 94 158 72
 -5.05544 -0.916544   2.52494 64 32 21
  0.50149 0.0842087   1.70102 161 177 174
-4.99325 -1.00001   2.3652 64 32 21
 0.244256 -0.244096   1.35066 175 186 178
 -4.98958 -0.782749   2.44561 71 37 28
 -5.18816 -0.719214    2.3389 70 29 23
-0.301708  0.141809    1.4967 130 165 171
-0.0468959   0.734654    1.59473 113 108 105
 0.548161 0.0514383   1.66372 199 221 219
-0.318922  0.132356   1.48575 206 71 114
 0.527892 0.0376079   1.65661 205 208 201
 -4.93315 -0.583251   2.25803 69 35 26
0.42948 0.24347 1.57175 100 165 71
0.429923 0.243597  1.57086 94 160 70
   0.32257 -0.0371555    1.39486 128 208 113
0.422883 0.276958  1.58469 112 176 89
 0.467925 0.0282096   1.60427 164 183 181
  0.12589 -0.153148   1.39373 135 141 131
 0.642978 0.0253837   1.71155 170 182 182
 0.611658 0.0486166   1.66793 216 218 217
0.425736 0.265132  1.57691 82 139 58
-0.0331416  -0.221462    1.39212 197 199 194
0.496533 0.094921   1.7062 190 213 207
  0.556371 -0.0453061    1.56664 205 225 224
0.441369 0.194487  1.59051 80 160 71
 0.356317 -0.318834   1.32529 190 200 202
0.378949 0.653818  1.60973 146 148 147
 -5.06474 -0.986958   2.26841 50 23 16
  0.530375 -0.0387373    1.56942 197 207 199
  -4.9661 -0.903478   2.40092 40 22 18
 0.482143 -0.106115   1.47258 210 224 225
0.0303899 -0.242674   1.39855 150 147 140
 0.315408 0.0240308   1.49825 116 172 81
-0.330472 0.0948188     1.452 179 79 107
 0.600839 0.0429856   1.65599 213 215 212
-0.0590324   0.737885    1.59182 116 110 110
0.530964 -0.14484  1.48415 180 192 192
0.447868 -0.14734  1.42524 216 226 225
  0.43277 -0.156911   1.40626 207 219 217
 0.637609 0.0425415   1.69818 177 193 193
 0.434698 -0.146731   1.41667 226 238 236
0.460805 0.022061  1.58186 184 209 206
-4.93466 -1.01871  2.42096 42 22 15
 0.561421 0.0919576   1.69002 168 187 185
 -5.00597 -0.773636   2.39144 30 17 11
0.430744 0.261295  1.58343 116 179 88
  0.32986 -0.136298   1.43773 125 199 114
0.419468 -0.30895  1.35705 200 210 212
  0.345498 -0.0395125    1.50584 116 176 90
 -4.97479 -0.852133   2.36358 77 36 30
 0.317441 -0.138689   1.42633 140 207 136
0.541737 0.164304  1.75347 175 193 195
0.213127 0.650305  1.58859 50 91 77
0.479881 0.042916  1.62226 173 192 190
-0.233779 0.0694038   1.46677 48 167 199
0.618579 0.171577  1.75318 205 210 206
 0.558181 -0.105934   1.53518 203 223 222
 0.239727 -0.265288   1.32688 219 229 231
0.0413451  0.729368   1.59503 106 100 100
 0.598511 -0.169014   1.53339 206 211 205
 0.323293 -0.312227   1.31136 189 201 201
 0.60748 0.223688  1.77864 177 176 171
 -4.96814 -0.773094   2.34982 75 37 28
  0.586976 -0.0812638    1.56638 211 216 212
 0.52256 0.131634  1.73181 192 197 191
 -4.98094 -0.691134   2.20182 57 26 21
  0.324691 0.00729041    1.52585 52 90 33
   0.332937 -0.00187168      1.5015 95 159 72
 0.117978 -0.159561   1.37588 163 165 160
-5.22487 -1.19504  2.53667 40 22 12
-0.303727 0.0284576   1.40677 51 157 183
  0.321429 -0.0460705     1.4884 215 31 33
 0.205818 -0.220931   1.33754 217 227 226
0.618658 -0.16785  1.57406 192 196 195
 -5.00776 -0.792865   2.50922 32 17 10
 0.411318 -0.309019   1.34819 198 212 213
-0.0746257  -0.204316    1.40174 199 206 198
-4.4597 -1.9008 3.42958 10 8 9
-0.111312 0.0461348   1.49646 47 171 207
0.0314368  0.617805   1.58087 22 23 25
 0.483528 -0.111489    1.4689 203 217 217
-5.04276   -1.005  2.07648 63 30 25
 0.484857 -0.115467   1.46282 230 240 239
0.244656 0.692334  1.60156 151 153 148
0.608711 0.195289  1.77031 199 202 195
-2.31546 0.863639  2.47378 73 48 41
 -5.00083 -0.902037   2.31308 67 33 23
 0.450439 -0.269378   1.37695 222 232 231
-4.93111 -0.55334  2.29934 44 21 15
 0.582518 0.0120102   1.63063 168 184 183
0.510601 0.483698  1.59336 100 132 47
-2.36552 0.679927  2.55511 47 28 22
-5.08588 -1.26422  2.52011 81 37 24
  0.585796 -0.0546803    1.56675 200 218 218
  0.327976 -0.0566997    1.49129 181 22 19
 0.334204 -0.140949   1.44817 131 192 115
-2.56526 0.498749  2.64328 49 25 21
0.477675 0.230878  1.81473 131 129 130
0.648027 0.136055  1.77874 166 157 158
  0.594942 -0.0527217    1.58282 182 201 199
-2.92439 0.492452  2.65546 59 34 29
 0.555892 -0.137335    1.5218 205 212 205
 0.622994 0.0181818   1.65797 179 197 199
 0.455755 -0.152302   1.43261 231 240 239
-0.0650838   0.730073    1.59393 109 109 107
-0.104539 0.0731719   1.51935 73 181 217
 -5.02968 -0.944976   2.45983 68 31 22
 0.50978 0.279365  1.79772 131 132 127
0.427531 -0.16723   1.3955 219 225 225
-0.157815 -0.193144   1.39499 194 195 189
-5.14526 -1.20721  2.50131 77 37 25
-5.04678 -1.04826   2.3568 70 35 29
-5.11953 -1.10944   2.6596 53 24 16
   0.57977 -0.0531057    1.58599 212 230 230
   0.278451 -0.00943311     1.60363 85 74 18
 0.403578 -0.271597   1.36329 235 241 241
 0.490916 -0.114219   1.46616 221 235 236
-5.11412 -1.16897  2.64006 56 23 14
-5.12315 -1.03061  2.70368 38 23 16
-2.92841 0.422683  2.68187 51 30 25
-2.16428 0.684962  2.54693 62 34 31
0.0523433  0.657996    1.5638 27 32 35
-2.40649 0.781346  2.50995 68 44 40
 -5.00362 -0.705073   2.27349 76 36 24
0.0129871  0.714246    1.5908 112 113 108
0.593665 0.301006  1.86062 64 67 56
 0.638822 0.0271548   1.70425 153 164 168
 0.443763 -0.141227   1.42341 224 238 239
-0.0177356  -0.260707    1.38005 187 197 189
-2.24869  0.69663  2.55508 75 51 47
0.381818 -0.25577  1.34502 220 230 231
-5.12175 -1.00723  2.36967 64 31 22
-3.07879 0.373903   2.7135 57 32 27
0.441376  -0.2583  1.38864 223 229 227
 0.443618 -0.166677   1.41494 224 230 230
 0.650461 0.0696738      1.74 159 173 176
 -5.02563 -0.494411   2.31621 50 25 18
-5.17104 -1.07331  2.79566 28 20 17
  0.628462 -0.0159296     1.6469 176 188 186
  0.295857 -0.0300372    1.60774 82 77 21
0.0264504  0.646563   1.56561 21 25 28
  0.515054 -0.0751374    1.54069 194 213 211
-5.14065 -1.07676  2.72822 28 19 14
 0.517261 -0.142013   1.46933 220 232 230
0.466614 0.145964   1.5987 117 187 99
-5.01207 -1.03589   2.4903 61 26 22
-2.87147 0.682074  2.56559 49 25 21
 0.400907 -0.261252   1.36301 231 240 239
 0.400266 -0.202823   1.35436 230 240 239
 -5.0562 -1.14142  2.45381 69 35 26
   0.5362 -0.169578   1.45066 230 236 236
-5.03351 -1.16198  2.14814 62 29 22
 0.387231 -0.265253   1.34503 220 230 232
 -4.99686 -0.643963   2.22801 60 25 21
-0.138895  0.593314   1.61988 22 50 36
-4.95933 -1.23956  2.37743 66 28 15
 -4.96492 -0.851856   2.22652 65 33 22
 0.476267 -0.129532   1.45626 232 241 240
 -4.90665 -0.623009   2.14709 65 32 25
-0.180159 -0.157018   1.41076 172 169 162
-0.183105 -0.158893   1.41228 175 174 169
 -5.01681 -0.852962   2.27223 58 25 16
 -0.110574 -0.0950453    1.43445 221 231 233
 0.305237 0.0336308   1.64738 104 175 81
-3.03135 0.597219   2.5958 44 23 18
  -4.0453 0.0526338   2.84266 30 21 12
 0.26306 0.457782  1.69314 129 139 131
-5.2925  -1.046 2.66611 55 22 17
  -5.0012 -0.975216   2.56719 55 22 17
0.646309 0.125693  1.75522 175 171 170
 -5.00847 -0.654262   2.26202 68 35 28
0.422116 -0.17555  1.39407 227 237 236
-0.0309152  -0.144856    1.45262 184 189 182
0.242826 0.466223  1.62948 124 191 98
 0.412848 -0.277636    1.3538 229 235 235
 0.479446 -0.216813   1.42138 228 234 234
 0.435768 -0.246051   1.39721 233 237 236
 0.483502 -0.335707   1.38753 206 215 212
 0.548633 -0.173479   1.45139 226 235 234
-5.13096 -1.22186  2.19934 43 20 12
 0.463731 -0.132896   1.44669 230 239 238
  -5.0316 -0.279092   2.54592 37 22 15
 0.424209 -0.272095   1.36974 224 230 228
-5.05574  -1.0242  2.16333 50 21 17
  0.498728 -0.0792793    1.54435 189 197 184
-0.179201 -0.158907   1.39957 185 185 177
-5.06328 -1.31354  2.54678 51 24 15
 0.517342 -0.204566   1.42756 218 227 226
 -5.00525 -0.203908   2.56734 45 26 22
 0.531422 -0.200102   1.43424 226 236 235
-0.0211441   0.408126    1.66048 207 181 42
 -5.00283 -0.752558   2.22818 68 31 23
0.541911 -0.18675    1.438 227 236 235
-0.0862849 -0.0814292    1.44103 219 228 233
-0.00983148  0.00441427     1.35803 218 227 232
0.0111941  0.425961    1.6312 225 202 64
 0.326335 -0.200139   1.40327 36 39 32
0.0572008  0.186487   1.52063 220 225 218
 -0.201827 -0.0541165    1.40425 219 225 225
   0.13593 0.00837823    1.59097 122 192 103
-0.279887  0.312734   1.62971 181 178 143
-0.298434  0.233433   1.56382 156 187 156
-0.253779  0.175391   1.52072 21 16 20
0.301018  -0.1794  1.43209 220 239 246
0.00228911   0.205426    1.50048 103 59 34
-0.309638 0.0748431   1.43195 176 187 157
-0.169659   0.24088   1.57779 90 175 120
0.614492 0.238741  1.80898 179 178 176
0.0154724 -0.153819   1.46519 112 99 83
-0.0567329  -0.166781    1.44746 57 47 37
0.0499185 0.0656509   1.55039 227 239 237
0.192487 -0.13345  1.41385 34 35 39
-0.0344126   0.232435    1.50666 208 204 203
 0.386761 -0.146026   1.45829 191 212 203
-0.0395057   0.566669     1.6268 184 203 207
0.0899764  0.262133    1.5579 2 8 4
-0.304261  0.423049   1.76749 117 122 128
0.00265184   0.308419    1.58178 215 217 212
 0.43875 0.136011  1.87119 116 118 117
-0.0667709  0.0949299    1.53976 218 237 243
-0.118554  0.109423   1.52686 220 212 199
  0.415973 -0.0557297    1.51611 172 193 184
0.062621 0.275215  1.56347 215 218 211
0.134597 -0.24544  1.38177 116 122 120
0.0112139     0.264   1.54545 27 27 25
0.0917752  0.304166   1.59307 207 212 206
  0.618599 -0.0606927    1.61032 63 48 53
0.191335 0.528188  1.63139 29 35 23
 0.541615 0.0168156   1.62583 76 63 47
0.0041768  0.310036   1.58342 211 213 208
0.0335046  0.241147   1.53099 202 213 205
0.0229564  0.556805   1.61848 185 137 63
0.624433 0.267992  1.80553 203 204 206
-0.136499 0.0942308   1.52571 151 55 82
0.0763416  0.478199   1.63639 216 240 116
-0.202708  0.394106   1.68239 96 152 91
 -0.213262 -0.0018538    1.42168 215 90 134
 0.205838 -0.139708   1.41049 13 43 43
-0.0288668 -0.0508249    1.45852 221 111 148
 -0.31508 -0.170545   1.39201 36 25 23
0.0133564  0.284374   1.56233 215 217 216
0.304562 -0.15982  1.41517 52 77 82
0.0746197  0.291125   1.57801 213 214 208
-0.0395702   0.545691    1.63216 61 61 61
-0.126064  0.482415   1.64417 189 207 207
0.064352 0.475839  1.63743 205 230 126
0.0985864  0.284703   1.57984 215 220 214
0.0403662  0.287535   1.57005 9 13 16
0.573136 0.218334  1.76621 208 218 219
 0.400935 0.0230276   1.62907 65 114 48
-0.198929  0.246339    1.5679 36 37 32
0.0396052 -0.238718   1.40555 148 144 133
-0.305576 -0.262888   1.37259 42 24 20
 0.525395 0.0436989    1.6664 173 180 172
0.0891912   0.30463   1.59576 216 221 215
0.0979265  0.162097   1.52043 228 235 219
0.0329594  0.282481   1.56476 223 219 220
0.0701287 0.0396308   1.56453 103 194 212
-0.130447  0.467203   1.66324 43 43 41
-0.156425   0.16977   1.52943 204 215 207
-0.0500301    0.52544    1.64561 73 79 79
  0.23717 -0.304453   1.37551 116 127 121
-0.12839 0.150632   1.5225 212 225 216
-0.114365 0.0106794    1.4582 51 180 220
 -0.0514601 -0.00592775     1.47136 48 183 230
0.637777 0.204978  1.78001 53 46 53
-0.142376 -0.147667    1.4193 189 192 183
0.0419745  0.352934   1.62145 186 149 143
0.0491816 0.0424314    1.5615 240 103 157
-0.234748 -0.116775   1.40019 169 162 152
-0.121397  0.523104   1.64784 59 86 79
0.0496776  0.533249   1.62782 43 55 55
-0.0485151  -0.219496    1.40194 149 150 144
-0.202709  0.213574   1.54273 80 157 113
-0.258696  0.120032    1.5026 211 95 132
-0.255212   0.53754   1.63608 113 107 111
  0.391835 -0.0937002    1.50567 159 183 159
0.00488527   0.522702    1.63896 47 52 58
0.0934686  0.490694   1.63459 201 219 107
  -0.26571 -0.0564429    1.45319 54 39 36
-0.0605276  -0.182944    1.42033 66 59 51
  0.503399 -0.0119723    1.60121 58 51 45
 0.18964 0.544669  1.63252 127 109 69
-0.202057 0.0480798   1.51587 224 109 150
 0.0307856 -0.0697624    1.46767 231 119 157
-0.138981  0.156037   1.52561 56 72 62
-0.184249  0.170011   1.51857 67 88 79
 0.34819 0.408552  1.71837 137 141 140
-0.00945312    0.534821     1.63739 102 114 112
0.101709 0.492872  1.63405 175 195 72
-0.0178308    0.21603    1.50066 98 50 27
0.359468 0.348129   1.6854 42 69 18
-0.13436 0.493779  1.64047 163 193 227
-0.226448  0.530947    1.6473 21 25 24
0.126856 0.411807  1.68633 232 45 30
-0.15309 0.368255  1.67784 94 137 92
 0.250772 0.0503935   1.64989 109 157 81
  0.52668 0.0657764   1.69423 91 94 85
-0.327477   -0.1898    1.3985 96 79 72
-0.0533525   0.559308     1.6306 27 63 53
-0.0468576   0.506491    1.65425 110 127 121
-0.137656  0.522428    1.6491 31 36 32
-0.0621718   0.536031    1.63679 42 47 53
-0.072499  0.132158   1.53166 63 74 66
-0.0836053   0.210031    1.48279 131 75 52
-0.183143   0.17938   1.52642 72 88 75
-0.187581  0.544955   1.63563 30 35 41
0.00866122  -0.234315    1.40689 178 180 169
0.00831327  -0.232272    1.40375 178 180 169
 0.441085 0.0346453   1.56549 106 105 74
-0.159074  0.182821   1.54007 56 80 66
-0.157738  0.184071   1.53608 56 80 66
0.108837  0.35029  1.63337 49 20 14
-0.162922  0.545682   1.64226 25 52 35
-0.111212   0.52503    1.6461 15 17 12
-0.111545  0.524826   1.64651 15 17 12
-0.021527  0.132031   1.54875 177 181 167
-0.111925  0.492276   1.63804 23 77 163
-0.301821  0.395343   1.69951 146 68 90
-0.198832  0.340853    1.6421 19 61 23
  1.48487 -0.581887   3.17666 85 81 82
-0.191541  0.219464   1.55293 53 99 63
 0.545406 0.0529785   1.66838 201 214 205
-0.222012 0.0805169   1.48198 131 186 189
-0.687859  -2.62728   4.04031 13 13 13
1.27936 0.36486 2.73188 46 32 31
 0.294325 0.0213353    1.4826 221 39 38
 1.24387 0.339678  2.75226 111 102 105
-0.21904 0.464139  1.67558 20 29 26
 0.36766 0.487856  1.67462 139 149 141
-0.229407 -0.348949   1.36331 138 126 130
 1.24992 0.484433  2.67006 86 70 83
0.219673 0.607203  1.61521 57 67 79
-0.244456  0.519827   1.65306 139 155 152
 0.406487 -0.134528   1.45453 214 228 228
 1.35648 -0.42262  3.11794 85 85 87
 -0.30144 -0.195622    1.3875 135 124 130
-0.283085 0.0965328   1.46837 119 183 183
 0.170112 -0.277459   1.37891 188 201 192
0.0907265  0.241588   1.54538 244 44 31
 0.113152 -0.267975   1.39555 182 187 180
 0.239418 -0.313448   1.36868 190 209 205
-0.0755018  0.0823101    1.53946 140 74 101
0.282739 -0.24032  1.41304 131 135 121
-0.220579 0.0831419   1.48319 115 184 189
-0.190522 -0.378745   1.35978 133 118 125
0.0280501 -0.249556   1.38735 147 146 142
0.0276695 -0.249239   1.38578 147 146 142
  1.29973 -0.265695   3.03785 90 92 89
  0.207755 0.00648582    1.50026 36 69 22
 0.39524 0.480648  1.66032 77 119 45
  0.413595 -0.0788529    1.49528 124 136 114
0.207782 0.504565  1.63579 110 169 85
 0.447037 0.0403181   1.57774 111 118 87
-0.329308  0.106159   1.45782 169 42 85
-0.0641851   0.488164    1.66767 24 62 41
1.44652 0.36317 2.73331 115 105 114
-0.116788 0.0904847   1.53173 155 189 201
-0.297345 -0.252222   1.37372 134 119 122
 1.39008 0.307959  2.75546 115 110 116
0.0867508 -0.268234   1.38546 168 165 158
 -0.34621 0.0291816   1.39582 188 136 159
 1.35057 0.399428  2.71335 134 124 125
   1.25281 -0.0438357     2.9403 90 74 74
   1.21442 -0.0683904    2.95012 85 65 66
0.629839 0.367352  1.85455 140 125 128
0.0400018 -0.147804   1.43805 109 92 82
 1.08604 0.230759   2.7967 80 70 78
 1.05745 0.516877   2.6583 97 82 87
-0.318539 -0.203676   1.38817 91 73 71
  0.400899 -0.0817463    1.51472 119 134 113
 0.434947 0.0140411   1.53951 191 203 193
 1.13881 0.276256  2.77852 120 118 121
 1.29556 0.373003  2.72534 128 117 121
  0.195669 -0.0499321    1.44675 66 82 43
-0.250487 0.0903419   1.47611 202 143 147
0.0578826 -0.139152   1.43952 159 146 138
-0.154322 0.0990198    1.5234 124 179 209
  1.3101 0.194421  2.81681 93 78 81
 1.05572 0.432441  2.70582 157 148 149
 0.142927 -0.262932   1.37274 171 184 175
  1.30098 0.0198617   2.90456 96 86 94
  1.1594 0.453979  2.69136 133 128 134
 1.18788 0.322515  2.75412 85 76 81
 -0.15908 0.0643049   1.49364 167 197 199
 1.18399 0.373638  2.72401 138 136 141
  0.412852 -0.0475813    1.51612 181 203 191
-0.274237   0.26523   1.60252 188 62 100
   1.3127 0.0909382   2.87095 83 64 60
 1.20875 0.229764  2.80686 102 91 95
1.51945 0.11766 2.84953 75 68 75
  0.476144 -0.0566095    1.47294 230 238 240
0.0579654 0.0450425   1.56401 238 112 160
 1.27407 0.049622  2.89717 116 110 120
 0.400818 -0.114786   1.47496 159 176 157
-0.177311  0.522841   1.64856 31 70 52
 1.24637 0.172438  2.83588 95 80 83
1.05868 0.58139 2.63051 99 83 93
1.12815 0.28969 2.77666 94 88 92
  1.2307 0.102995  2.86253 77 56 55
-0.282728 -0.207081   1.36708 125 115 113
 1.04357 0.526671  2.65392 133 123 124
0.430143 -0.12956  1.42961 218 233 228
 1.24953 0.503603  2.66406 131 121 129
 1.15301 0.505589  2.66642 151 135 138
 1.00701 0.533874  2.65416 95 79 82
1.14964 0.31166 2.76617 92 81 79
 1.11637 0.100562  2.86685 124 119 125
    1.48571 -0.00755758     2.91552 69 63 67
    1.62814 -0.00393087     2.91085 58 53 57
 1.26098 0.300642  2.77311 117 108 113
 1.22319 0.569398   2.6333 144 133 139
  1.47802 -0.432012   3.12064 113 109 123
-0.293715  0.427062   1.78929 60 48 50
   1.29485 0.00168751    2.92588 112 106 110
   1.17655 0.00031653     2.9139 134 123 127
-0.163004  0.520602   1.65158 31 72 58
 1.39912 0.237596  2.79331 80 74 76
1.00213  0.5772 2.62938 141 129 133
    1.2467 -0.0617999    2.94164 135 124 130
 1.51627 0.101612  2.87586 102 101 107
    1.152 0.0113012   2.91118 94 79 82
 1.24521 0.437036   2.6884 70 65 69
 1.78146 -0.87942  3.30874 56 54 59
  1.44827 -0.450312   3.13168 90 84 88
-0.851572  -2.43001    3.9977 28 20 18
  1.36718 -0.246371   3.03601 105 98 105
 1.21978 0.191453  2.83353 114 105 108
 0.556883 0.0951569    1.6966 191 199 186
 0.285979 -0.160188   1.42796 132 200 113
  1.50329 0.0632812   2.88784 74 65 68
-0.321479  0.430825   1.79155 82 81 87
  1.35793 -0.478992   3.14683 64 62 63
  1.21055 0.0238695    2.9017 114 105 106
   1.27105 -0.0610528    2.94899 111 104 111
  1.34658 -0.177749   3.00291 106 104 115
-0.064669 0.0785855   1.54004 227 117 152
   1.254 -0.13022  2.98191 121 112 117
 1.16896 0.342719  2.74912 124 119 125
 1.20625 0.488061  2.67481 100 84 87
 1.24653 0.630394   2.6068 99 89 100
 0.130651 -0.295324   1.36913 200 206 202
  1.47018 -0.464615   3.13362 62 53 56
-0.0475309   0.491284    1.66183 26 60 36
  1.52151 0.0197239   2.89804 109 108 114
  1.77479 -0.371815   3.07799 52 48 49
  1.18704 0.0708008   2.88277 126 111 114
  1.18913 0.0900985   2.86821 122 110 112
 1.21623 0.123187   2.8549 89 70 74
  1.5126 0.163669  2.82593 81 79 84
   1.31465 -0.0923583    2.96518 104 103 108
 1.22923 0.647622  2.59413 138 129 134
 2.25562 -1.80895  3.59501 33 32 37
 0.576587 0.0266403   1.63968 219 224 220
 1.17939 0.396021  2.72323 128 122 126
0.557633 0.601397   1.6528 149 144 140
 1.15579 0.131032  2.85011 122 113 118
  1.52403 -0.602945   3.20031 55 46 49
  1.80959 -0.623839    3.2089 82 77 83
 1.26462 0.421259  2.69814 118 112 116
  1.42122 -0.175637   2.99936 105 103 116
 1.15873 0.483154  2.67792 115 96 102
  1.55325 -0.381881    3.0893 87 82 88
 0.441758 -0.108417   1.45328 221 237 236
   1.2816 -0.289331   2.99788 6 6 6
    1.3486 0.00574427    2.91842 104 99 106
 1.12655 0.134819  2.84835 116 110 112
  1.1485 0.220351  2.80739 86 77 82
  0.428476 0.00654434    1.55304 110 117 84
 1.15542 0.608955  2.61732 135 126 131
  1.32443 -0.261003   3.04373 68 59 60
 1.33199 0.194114  2.82474 124 117 124
   1.63302 -0.0558578    2.93649 73 71 82
 1.21692 0.661962   2.5852 130 123 131
  1.34973 -0.232298   3.02788 71 68 75
  1.42947 0.0308265   2.89203 80 75 79
  1.43019 -0.236873   3.02727 73 66 73
-0.319149 -0.220345   1.38427 74 55 49
  1.44962 0.0228408   2.89473 109 104 110
0.0282037 -0.261927   1.37922 187 194 187
 1.08295 0.171708  2.83179 130 115 118
  1.79522 -0.335438   3.06674 61 51 59
  1.73911 -0.425342   3.10696 84 78 90
 0.462683 -0.293674   1.37891 209 215 213
 0.300681 -0.291739   1.34006 195 204 203
  1.49091 0.0299715   2.89443 110 105 109
 1.24198 -0.14609  2.98486 89 74 77
  1.38619 -0.125332   2.97203 77 66 72
 1.18545 0.324131  2.75652 90 81 86
  1.33635 -0.276081   3.04639 95 93 104
 1.22299 0.472091  2.67811 125 123 126
0.0980283  0.220222   1.52938 247 41 41
 1.12606 0.316964  2.75575 130 124 126
 1.66438 -0.61808  3.19433 58 52 54
   1.6821 -0.241527   3.01523 71 66 72
 1.14434 0.391713  2.72534 124 114 115
-0.316249  0.161807   1.50643 60 153 184
 1.10836 0.183727  2.82613 124 120 121
  1.72311 -0.599571   3.19381 86 77 82
  1.82852 -0.650699   3.20677 47 38 41
   1.57556 -0.0924909    2.94676 99 94 98
 0.419578 -0.139316   1.43614 155 166 152
   1.56314 -0.0628217    2.94445 102 97 104
2.39059 -1.7522 3.59799 23 23 23
0.0862904  -0.28343   1.37332 191 201 193
-0.0120529  -0.260107    1.36957 183 188 184
 1.22736 0.273797  2.78366 122 115 122
-0.255514 -0.251367   1.35073 153 145 142
 0.42789 0.504672  1.64949 98 115 47
 1.22804 0.491608  2.66491 138 127 135
 0.294266 -0.273612   1.35887 193 208 203
 0.381975 -0.181065    1.3669 209 224 219
 1.29716 0.412336  2.71086 114 108 112
-0.106289  0.377019   1.70444 12 12 14
-0.297416  0.293749   1.61622 194 85 114
  1.47833 -0.396643   3.10007 71 66 70
1.23841 0.26021 2.78855 100 89 95
 1.42782 -0.46285  3.13242 65 62 69
  1.79471 -0.587941   3.17826 80 74 84
 0.551462 -0.276599   1.44487 206 212 208
 1.11545 0.147691  2.84368 90 83 90
   1.42409 -0.0990638    2.96378 75 65 66
  0.184777 -0.0771956    1.42676 44 65 26
-0.230164  0.232966   1.55155 40 65 46
0.534521 0.151479  1.74007 179 184 178
-0.171028  0.064185   1.48695 44 170 211
  1.74113 -0.822653   3.29287 54 54 54
-0.270269  0.118548   1.49046 195 94 124
 1.16653 0.316617  2.76518 127 124 133
  1.68279 -0.386017   3.08895 92 89 96
-0.294597 0.0967195   1.46466 45 157 195
0.407861 0.496377  1.64767 91 108 38
  0.555059 -0.0447135    1.56579 218 227 226
-0.328526 0.0385782   1.40817 210 117 138
-0.209615   0.10168   1.50169 203 107 144
0.610937 0.242202  1.78839 179 178 176
  1.67043 -0.509003   3.14454 90 81 82
0.550621 0.549643  1.67278 172 172 160
  1.67561 -0.167724   2.98205 91 84 91
-0.306603  0.400218   1.70974 62 27 33
    0.54349 -0.00871818     1.59435 200 202 199
  1.67854 -0.417587   3.09569 64 53 57
  1.93285 -0.743477   3.25087 45 39 39
-0.147953  0.538818   1.64337 49 70 63
 -0.26317 -0.267701   1.35753 140 129 125
  1.37918 -0.437176   3.12969 67 64 73
  1.52657 0.0347738    2.8971 106 106 116
   1.2332 -0.208182   3.00931 92 81 85
-0.110839 0.0476878   1.49758 58 176 216
  1.73565 -0.609578    3.1863 53 44 47
-0.128141 0.0801006   1.51633 221 95 142
  1.75084 -0.497896   3.15452 63 55 52
  1.58593 -0.577143   3.18007 57 53 54
   1.41777 -0.0815228     2.9485 106 104 115
 2.20922 -1.22471  3.47948 30 28 31
   1.29225 -0.0961623    2.95418 110 103 110
 2.16594 -1.28378  3.52657 30 30 32
0.0184554 0.0419539    1.5428 55 188 221
 1.21469 0.304856  2.76188 118 113 120
-0.259168 -0.187734   1.37436 151 151 143
 1.70035 -1.31801  2.53708 93 92 110
-0.996799  -1.53935   3.62487 31 23 21
 -0.14406 -0.255307   1.37439 163 163 155
  1.51972 -0.444291   3.12002 84 82 87
 0.492148 -0.247988   1.40515 221 233 233
 2.03877 -1.08076  3.42026 46 44 47
0.305449 0.364517  1.73968 128 134 124
-0.0782874   0.265833    1.53207 87 41 18
0.608134 0.188397  1.76235 185 184 179
  1.2319 0.373701  2.72539 93 87 89
 2.07018 -1.14437  3.44918 29 27 32
 1.97083 -0.82926  3.29545 41 35 39
  1.78496 -0.795819   3.28425 57 48 53
 2.02562 -1.20715  3.48946 43 43 45
-0.0669822   0.288123    1.55016 117 65 41
0.395183 0.400892  1.66074 119 188 97
0.331512 0.438062  1.70205 132 137 131
-0.040806 -0.268305   1.37283 167 168 162
-0.0575087   0.313656    1.57083 114 61 30
-0.289625  0.124089   1.48869 53 162 193
  0.565036 -0.0105621    1.59325 215 221 219
  0.556027 -0.0576521    1.56258 204 210 206
  0.21607 -0.320401   1.35625 192 203 197
 0.322877 -0.233772   1.34218 195 207 207
-0.138567 0.0817446   1.51659 217 89 137
  0.546482 -0.0169372    1.58591 211 217 213
   -0.182 0.0694653   1.48852 66 165 196
-0.0206432 -0.0437651    1.46126 235 143 166
-1.20618 -1.71966  3.70339 29 21 18
-0.0552537   0.366004    1.61611 109 60 28
0.246755 0.274638  1.46509 143 215 115
-0.103811  0.554585   1.63421 26 63 45
 0.361797 -0.251679   1.33557 218 228 229
 0.130931 -0.196404   1.35759 151 157 155
-0.191595 -0.275222   1.35059 161 156 150
  0.550222 -0.0272416    1.58087 195 202 195
-1.18942  -1.6155  3.65101 45 31 30
-0.0461787  0.0416338    1.51973 56 186 222
-1.00424 0.403058  2.68261 13 9 8
  -1.1616 0.0372177   2.88661 10 9 7
-1.05976  -2.0979  3.89467 25 19 21
-0.210685 -0.182989   1.38277 164 165 160
-0.217815 -0.326067   1.35252 136 128 125
 0.165289 -0.332372   1.34472 187 194 187
  0.34402 -0.228223   1.33272 224 235 237
 0.36933 0.380804  1.67654 100 160 86
-1.11595 0.165397  2.80832 11 10 8
  0.527008 -0.0224176    1.58091 210 217 210
-0.137975  0.285625   1.62156 33 32 14
-1.10877 -2.16978    3.281 11 11 11
 -0.11515 -0.261011     1.359 172 173 168
-0.809085  0.412972   2.68055 17 16 11
-0.896686  0.165494   2.80304 21 17 14
 0.15364 -0.34381  1.34749 195 202 195
-0.991537    -2.152   3.90846 16 14 17
-1.11906 0.142985  2.80721 24 19 15
 -0.20478 -0.321849   1.34584 148 143 140
-0.792645  0.409344   2.70065 9 8 6
-0.0714975  -0.243708    1.38419 176 176 168
0.00304547  -0.132711    1.49406 204 234 182
 1.68598 -1.38136  2.47835 102 100 113
-0.731585 0.0563592   2.85459 10 9 7
 0.315487 -0.270429   1.51421 46 44 32
 2.12428 -1.06474  3.41754 44 42 43
-0.752527 0.0957526     2.842 11 11 9
0.0628311  0.413384   1.67335 212 191 50
0.163052 0.339028  1.69873 33 37 22
-0.889723  0.180744   2.80148 10 9 7
 -1.16943 0.0683323   2.85432 15 10 7
-0.993579 -0.571753   3.15787 13 9 6
-0.991435  -1.74048    3.7248 33 22 20
 -1.01313 0.0777356   2.85845 10 9 7
-0.856519  0.271137    2.7673 11 9 10
-0.153847  0.329966   1.64599 28 27 25
 0.404049 -0.178244   1.37122 220 232 230
-0.861873  0.204425    2.7862 9 8 6
-0.956582  0.261159   2.78002 12 10 11
-0.202183  0.231866   1.55688 55 89 64
-0.0993787  -0.326905    1.34312 168 167 162
-0.907368 -0.228322    2.9925 18 14 13
 -1.06199 -0.769508   3.25242 11 10 8
 -1.05938 -0.767611   3.24914 11 10 8
-1.24609 -1.10776  3.41672 21 17 16
-1.08606 0.160522  2.79691 9 7 8
  0.45983 -0.368638   1.38179 199 211 209
-0.949211  0.411036   2.68316 12 11 9
-0.937084 -0.986966   3.37059 10 9 7
-0.883951  0.314348   2.72679 17 13 12
-0.943477  -1.08947   3.42777 20 16 15
-1.11591 0.193918  2.78943 22 16 16
-1.07391 0.401699  2.68352 25 17 15
 -0.969541 -0.0644473     2.9228 17 13 10
-0.870892  0.414304   2.68805 10 9 7
-0.964218 -0.941525   3.34184 14 10 9
-0.991091 -0.433848   3.11442 15 14 12
-0.69319 0.362646  2.71782 10 9 7
-0.775375 -0.221972   2.98826 12 11 9
 0.494019 -0.157343   1.45858 233 237 236
-0.855188  -0.54319     3.156 11 9 10
 -1.1101 0.217413   2.7681 14 10 9
 -0.899577 -0.0622823    2.90967 15 14 12
-0.969918  -1.34282   3.53209 40 32 30
-0.97184 -1.00903  3.36575 14 13 9
 -0.232275 -0.0453335    1.44302 217 225 228
-0.294312  0.457884   1.82469 22 21 19
 0.393283 -0.254398   1.35957 231 237 237
-0.924737 -0.554546   3.14158 16 15 13
 -1.22823 -0.293614   3.02335 15 14 12
-0.909914 -0.188802   2.97394 10 9 7
-0.989464 -0.735735   3.23988 19 15 14
-1.08665  0.17898  2.79898 11 10 6
-0.0227248   0.395306    1.64047 204 181 43
-1.13655  -2.1505  3.33402 3 3 3
-0.644271  0.482526   2.67493 13 12 10
-0.312057 0.0544827    1.4279 182 196 160
0.0444421   0.26468   1.55203 213 215 210
0.0742607  0.269491   1.56179 34 28 28
0.0531341  0.237444   1.53334 42 36 40
-0.0339989    0.30675    1.57173 200 200 192
  0.418139 -0.0561206    1.51507 177 196 190
0.0480181  0.309859   1.58926 215 217 216
-0.0114912    0.22692    1.51358 217 222 216
0.000241823    0.285807     1.56074 214 219 213
-0.0187879   0.365574    1.62158 22 19 0
 0.621735 -0.144592   1.57971 209 215 215
-0.0351809   0.261168     1.5349 210 209 204
-0.0251931   0.254555    1.53084 24 20 21
0.0993733  0.303219   1.59531 216 223 216
 0.550855 0.0436588   1.65799 127 117 105
-0.0150858   0.247437    1.52509 60 67 73
0.0525218  0.352248   1.62242 186 147 142
    0.4103 -0.0925831    1.49809 123 133 109
-0.225073  0.210924   1.53552 78 100 79
-0.0153066   0.263391    1.54048 27 23 20
-0.279227  0.581355   1.60761 25 23 24
  0.44183 0.0283524   1.56814 104 98 72
 0.426131 -0.202324   1.93126 41 76 22
-0.30776  0.17044  1.51747 111 183 195
-0.000663953     0.276318      1.55292 81 81 81
  0.526261 0.00692383    1.60428 198 206 191
-0.304956  0.451986   1.81724 63 63 65
0.109454 0.347612  1.62806 69 4 0
-0.317421  0.150916    1.4978 110 171 199
 0.413859 -0.112424   1.46994 170 182 168
0.0558257 -0.140505   1.43702 171 158 152
  0.400851 -0.0787505    1.52001 93 113 76
-0.367502  0.236481   1.51967 33 22 18
 0.386051 -0.188551   1.39347 149 157 144
0.229477 0.709543  1.60707 104 98 98
 0.406584 -0.108587   1.47561 213 228 221
-0.309273  0.460936   1.83388 21 16 13
0.086216 0.497735  1.64089 114 119 39
   0.41032 -0.0349006    1.53516 97 107 72
 -0.21517 0.0739658   1.48006 196 101 131
 0.45128 -0.04299  1.48803 204 216 214
 0.176532 -0.205532   1.33615 218 228 229
  0.450107 -0.0328456    1.49746 211 231 230
0.368336  -0.1797   1.3864 126 135 116
0.571872 0.113279  1.70491 191 197 185
0.226039 0.122693  1.74051 52 87 29
0.0180212 -0.247851   1.39426 185 186 180
0.418862 0.499589  1.65837 65 90 35
0.0486142  -0.14627   1.42729 144 135 128
  0.430685 0.00451613    1.54007 142 146 131
0.0867322 -0.282749   1.37316 191 201 193
-0.304921  0.456086    1.8267 27 27 29
-0.339152  0.445026   1.80523 52 33 27
-0.140637 -0.213833    1.3695 174 171 162
-0.298326   0.46409   1.83323 22 20 21
0.349178 0.113354  1.77629 93 167 72
-0.286624  0.175181   1.52621 199 68 118
-0.209711 0.0661481   1.47634 220 127 148
  0.373272 -0.0141715    1.65907 33 78 23
-0.309402 0.0363766   1.41106 84 176 189
 -1.3817 -1.95008  3.51923 24 19 15
-1.38543 -1.94333  3.54859 29 19 17
0.510266 -0.30559  1.40884 194 202 205
-1.37019 -1.90146  3.54491 27 19 16
 0.170266 -0.050113   1.50247 28 40 16
-1.41024  -2.0075   3.4846 22 12 10
-0.157591 -0.307844   1.34142 176 177 172
0.00501373   0.409174    1.65608 220 193 42
0.256169 0.583914  1.60985 18 17 12
  0.339528 -0.0541354    1.51455 150 207 113
 0.0335503 -0.0421339    1.49727 228 163 183
-0.126509  0.261631   1.60205 15 15 13
-0.0368493   0.289416    1.57325 199 202 195
0.0149318 -0.146224   1.45942 114 97 81
  0.347681 -0.0692562    1.50648 156 217 124
0.0224083  0.274888   1.55566 182 182 180
0.0573584  0.720457   1.59534 169 171 160
0.232139 0.636045  1.60294 37 24 18
 0.271339 0.0446977   1.63004 202 232 98
0.00502285   0.244263    1.52853 213 212 210
0.0643235  0.260116   1.55333 219 218 223
  0.17599 -0.189222   1.36779 105 100 81
0.08454 0.65041 1.59771 136 142 130
 0.139279 -0.170147   1.37604 202 214 214
 0.3299 0.68737 1.60871 183 188 181
 0.266048 0.0466563   1.64869 22 49 6
  0.379183 -0.0284538    1.63069 93 157 73
0.0597444  0.220831   1.52254 221 221 221
 0.405165 -0.151548   1.44056 119 122 103
 0.19123 0.734255  1.61144 124 129 122
-0.0262624   0.382463    1.62158 211 185 40
0.0475608  0.291654   1.57409 211 216 212
-0.017931  0.730199   1.59286 161 164 157
0.0331007  0.241125   1.53115 202 213 205
-0.0402837    0.26478    1.43674 83 194 222
0.0709606  0.483623    1.6392 65 68 21
-0.0353474   0.212737    1.49616 162 112 77
 0.563638 0.0122641   1.62171 91 72 57
 0.543557 0.0239945   1.60449 191 201 193
-0.025032  0.254894   1.53067 39 39 39
-0.0481078   0.734301     1.5944 157 154 147
 0.468688 0.0384369   1.60985 197 212 205
 0.550594 0.0450021    1.6573 129 118 100
0.048982 0.230992  1.52836 37 39 38
0.0112119   0.30184   1.57442 6 10 13
-0.0713505   0.729968    1.59506 155 154 150
0.0878997  0.287279    1.5777 212 212 212
-0.109655  0.734834   1.59334 157 157 147
-0.0152505   0.242376    1.52139 36 39 32
0.0366827  0.275434    1.5584 29 28 26
-0.00145275    0.307595     1.57773 208 213 209
-0.119404   0.74517   1.59376 41 25 26
 -0.214526 -0.0022814    1.42048 216 111 142
0.0425121  0.713269   1.58996 151 154 145
-0.260942  0.157283   1.50373 99 164 182
-0.322382 0.0236273    1.4006 182 143 148
0.0961476  0.279468   1.57577 20 15 19
-0.158056 0.0191214   1.45908 186 223 182
0.0351039   0.28834   1.56839 11 14 21
0.0617131  0.350702   1.62366 164 136 132
0.0943409  0.490156   1.63493 185 206 105
-0.175136 0.0227757   1.45654 47 170 211
0.0819736  0.493242   1.63779 21 23 9
-0.282817  0.227378   1.56989 203 70 115
-0.249319  0.155059   1.49912 46 27 29
-0.104419  0.742113   1.59964 49 29 28
 0.182189 -0.121243   1.42047 29 37 40
0.0728775 -0.138528   1.45288 146 137 132
0.0599525  0.228648   1.53002 47 27 26
-0.196361  0.311996   1.62045 32 28 27
0.270834   -0.251   1.4163 134 138 124
0.0351999 -0.238117   1.40012 146 137 128
0.257523 0.693262  1.60336 183 191 176
  0.477358 -0.0536597    1.47522 232 241 240
-0.0936972   0.641207    1.59167 10 12 9
0.312131 0.697218  1.61119 155 150 144
-0.146951  0.380928   1.68967 125 149 135
-0.125628  0.659835   1.60841 120 117 112
-0.145206 0.0567573   1.49427 228 101 146
-0.144183 0.0599144   1.49369 228 101 146
 0.447382 0.0383544   1.57971 106 107 75
-0.024064  0.758552    1.5965 88 84 81
-0.0123269   0.359281    1.61715 112 93 87
-0.338531    0.0986   1.45088 182 127 146
0.324326 0.686141  1.60732 182 192 183
-0.215444   0.18662   1.53668 61 83 71
0.336915 0.687219  1.60696 182 190 179
-0.311143  0.151314   1.50278 100 177 187
0.0993603  0.225705   1.53452 50 11 4
 0.173011 -0.211551   1.40389 175 172 167
-0.306298  0.279433   1.60564 144 30 53
0.0232856  0.280544   1.56053 213 216 209
0.0443329  0.728245    1.5961 147 139 128
 0.542945 0.0207962   1.61074 201 209 198
-0.071499  0.237964   1.50595 172 116 79
0.127723 0.702844  1.56133 160 156 144
0.00932831   0.356482    1.61884 146 118 117
1.45672 -3.4604 3.98631 62 48 48
-0.0733266  -0.209485    1.40305 196 203 196
 0.324946 0.0920403   1.77228 30 69 16
0.0679158  -0.14163    1.4339 109 85 73
0.590046 -0.21795  1.47094 210 219 224
0.226472 0.129104  1.78247 20 48 0
 0.562035 0.0142753   1.61088 199 204 198
-0.288508   0.60842   1.61282 101 92 85
-0.275461  0.574353   1.60853 23 17 21
 0.203485 0.0508671   1.63829 82 89 38
0.246265 0.757521  1.54021 154 166 154
0.325643 0.698252  1.61356 138 123 126
 -0.264498 -0.0703644    1.39893 171 162 153
-0.325095  0.146108    1.4943 171 52 82
-0.0297024  -0.219358    1.39984 196 196 194
-0.123905  0.647284   1.59086 18 12 14
 0.266621 0.0586379   1.66048 55 99 24
  0.196847 -0.0753709    1.42518 63 86 40
  0.15816 -0.176534   1.36883 192 204 204
0.187409 0.499106  1.64107 160 175 132
0.322373 0.389294  1.88477 142 128 128
  0.43195 0.0156723   1.54875 122 121 100
 0.055198 -0.140418   1.43539 147 140 134
0.0803573  0.245347   1.54687 248 44 43
 -0.257481 -0.0830776    1.39157 225 220 224
0.00445175   0.196958    1.49046 202 151 104
0.122104 0.722192  1.59941 64 25 10
 0.376704 -0.185618   1.37507 147 151 136
 0.53617 0.472902   1.5746 108 137 53
 0.130083 -0.169361   1.36188 156 156 154
 0.137759 -0.182982   1.35244 164 169 162
-2.12497 -2.81452  2.12755 47 22 15
0.0865435 -0.265175   1.38326 173 173 163
-0.189955 0.0735275   1.48467 204 148 149
0.0987744 -0.276589   1.37262 190 197 190
 0.604841 0.0930645    1.6946 181 178 169
0.226641   0.6916  1.59938 121 121 119
 0.250289 -0.254572   1.36803 173 176 165
-0.0399597   0.729944    1.58827 122 112 113
-0.0611097   0.299176    1.55922 169 110 68
0.383414  0.59407  1.67936 147 145 146
0.249601  0.22845   1.4584 152 216 122
0.0408625 -0.146662   1.43457 103 90 81
0.576612 0.498051  1.62181 108 136 52
0.227893 0.109676  1.71939 62 103 35
-1.71285 -3.19369  2.04123 9 10 12
0.0620627  0.238627   1.53293 200 48 45
0.355521 0.688555  1.60989 134 130 129
 0.266889 0.0459719   1.48304 59 88 32
0.00140731   0.477249     1.6514 162 139 7
  0.511885 -0.0304107    1.58139 183 190 183
0.294779 0.700328  1.60426 141 137 134
-0.153118 0.0587559    1.4901 186 129 148
-0.0585191   0.314779    1.57282 130 74 39
 0.211944 0.0483184   1.64127 42 42 6
0.316829 0.682172  1.60553 139 139 137
   0.43863 0.00808981    1.53105 158 168 159
 0.196979 0.0354899   1.63731 31 36 14
-0.254949    0.1137   1.49186 218 82 128
 0.42201 0.498266  1.64002 85 108 36
0.435174 0.457572  1.59898 106 158 73
0.287793 0.698183  1.60745 130 121 122
0.533331 0.154221  1.73715 160 163 156
 0.314523 -0.210343   1.36039 143 150 132
-0.259216  0.262402   1.60878 122 40 42
 0.520586 0.0360971   1.66247 157 157 147
 0.314222 -0.225742   1.38565 100 102 89
 0.195972 0.0626307   1.67776 89 125 55
 0.390671 -0.116341   1.47955 150 168 144
 0.230929 0.0900123   1.69386 89 138 57
  0.437223 -0.0647381    1.48189 211 227 226
 0.198392 0.0753422   1.68517 108 157 78
0.221212 0.704935  1.60338 124 120 119
 0.566038 0.0966549   1.69326 174 177 170
-0.172085 0.0523738   1.47675 68 180 218
 0.272146 0.0864586   1.69495 118 172 88
0.485706 0.202854   2.0456 152 140 144
-0.0891406   0.222783    1.49546 141 87 53
0.193075 0.107165  1.72937 35 69 18
-0.271656   0.29508   1.62774 59 153 178
  0.441873 0.00556439    1.52191 205 217 213
 0.323415 -0.211889   1.36708 128 132 117
  0.246357 -0.0271888    1.39433 64 90 42
 0.283068 0.0464934   1.48354 117 159 85
 -2.1462 -2.49095  2.24351 8 10 9
   0.1007 -0.186429   1.52613 148 149 144
 0.111772 -0.190637   1.51742 155 157 152
-0.298212  0.284618   1.61031 199 104 126
-0.0922027  -0.216485     1.3918 180 180 170
-0.137067  0.174746   1.53769 82 102 100
  0.529751 -0.0141077    1.58899 173 174 166
 0.168283 -0.215225   1.33447 182 191 188
  0.524091 -0.0176182    1.58669 195 201 199
0.254279 0.128807  1.76056 55 88 31
 0.39579 0.471738  1.60793 91 138 60
0.172155 0.719317   1.6003 42 25 18
-0.306031   0.11944    1.4777 167 160 178
-1.69988 -3.20568  2.09168 55 28 19
 0.530842 -0.040979   1.57119 196 198 193
-1.72879 -3.27157  2.00774 52 29 23
-0.233274  0.211589   1.53313 53 76 56
0.278858 0.117991  1.73321 73 120 48
0.249631 0.130428  1.77539 45 73 24
  -0.17116 -0.0116341    1.43448 111 193 204
0.327267 0.102908  1.78881 112 185 103
  0.552629 -0.0273995    1.57676 190 193 186
0.237856 0.128126  1.75236 43 78 24
0.234519 -0.23111  1.36365 204 210 206
-0.270713  0.118042   1.49233 190 111 142
-0.083362  0.381788   1.63947 98 50 27
0.565768 0.503617  1.63259 107 134 53
 0.587466 0.0337198    1.6463 220 225 221
-0.0640243   0.347506    1.60103 149 89 53
 0.185135 0.0906706   1.70319 72 115 43
 0.110355 -0.193964   1.52817 122 127 121
-2.13302 -2.77189  2.08047 4 6 5
0.586975  0.11626  1.71801 190 191 186
-0.28304 0.367082  1.68152 181 76 106
 0.397169 -0.125191    1.4638 209 230 225
 0.181844 0.0500466   1.67931 50 74 26
  0.201713 -0.0451959    1.42618 70 87 42
 0.298406 -0.232495   1.36592 164 171 163
 -0.14938 0.0815649   1.51301 208 123 152
0.272967 0.127526  1.77563 39 68 22
-0.28826 0.248945  1.58168 177 132 129
 0.185205 0.0958378   1.71709 65 104 41
-0.0708092   0.219469    1.49429 150 91 57
 0.0130341 0.00677813     1.5109 97 208 238
-0.000392122    -0.168354      1.47405 127 113 100
-0.295751  0.176499   1.52629 195 96 127
 0.203676 0.0240233   1.63211 72 67 25
0.442226 0.494101  1.62857 90 122 37
  0.510691 -0.0636383    1.54922 188 195 188
-1.90033  -2.5299  2.26211 10 11 13
-0.111101 0.0475837   1.49622 78 185 219
-0.0523313   0.351793    1.60582 122 71 40
 0.294986 -0.229382   1.38026 134 136 123
 0.197916 0.0160398   1.62992 33 36 7
 0.171949 0.0181362   1.63566 35 33 10
-0.276509  0.145538   1.51266 199 105 132
-0.122796 0.0505082   1.49587 99 168 201
0.564233 0.499841  1.62471 89 116 35
  0.10697 -0.199798   1.51317 133 132 127
 0.232938 0.0169486   1.63187 52 44 5
0.548867 0.487499  1.60522 91 115 31
-0.290479  0.125029   1.48766 53 162 193
0.048609 0.498734  1.64479 132 100 13
  0.368589 -0.0263436    1.64696 48 96 34
 0.439304 -0.140126   1.42705 222 234 232
 0.10788 0.753507  1.60449 73 55 51
-0.245659 0.0832557     1.474 98 159 188
0.0869157  0.710163   1.59209 36 22 19
 0.378692 -0.199368   1.34529 207 223 223
-0.266876 -0.424831   1.33829 86 44 28
-2.07164 -2.48807  2.25923 8 10 9
-0.287907   0.25945    1.5943 185 117 130
 0.559324 -0.060703   1.56343 196 199 190
  0.39324 -0.158623   1.41087 128 134 108
-0.168585 0.0742615   1.49657 59 179 214
0.410666 0.483164   1.6328 97 131 47
-0.289431  0.203786   1.54771 203 115 129
  0.515446 -0.0763727    1.54385 207 219 207
-0.28844 0.376809  1.68758 192 63 102
  0.45902 -0.242673    1.4059 216 224 226
 0.557699 -0.124107   1.52829 212 215 208
  0.267624 -0.0616458     1.4756 35 17 13
 0.467508 -0.343678   1.39638 197 206 203
0.0754339  0.706335    1.5912 41 22 16
-2.16888 -2.89289  2.17789 17 12 8
 0.445051 -0.115902   1.44233 227 238 234
-0.243751 -0.142037   1.38188 181 181 171
0.176558 0.754816  1.63323 34 25 20
-1.99337 -2.78343  2.10211 10 10 10
0.0248545 -0.155948   1.46268 117 105 91
  -0.173412 -0.00242677     1.43694 95 191 213
0.141962 0.745541  1.60751 31 20 14
0.285904 0.527626  1.66801 37 27 18
-1.90364 -2.57662   2.2788 12 12 12
-2.0838 -1.5348  3.5955 45 28 21
-1.73536 -1.16328  3.43217 38 28 26
-2.23273 -1.58114  3.62215 33 19 18
-1.67158 -3.22112  2.12345 41 21 14
-0.255042  -2.18385   1.66075 91 43 31
-0.884527 0.0120271   2.13639 13 9 8
-0.183136 -0.223571   1.37168 180 177 172
-2.17641  -2.4856  2.31096 36 16 9
0.149204 0.722981  1.60066 28 17 15
 -1.19471 -0.461288   2.56215 22 14 12
-1.81972 -2.53869  2.09542 10 10 10
-1.53676 -1.45107  2.39259 25 15 13
 0.510087 -0.194186   1.44274 228 237 236
-0.118396 -0.101275   1.42832 227 235 237
 0.521821 -0.295273   1.54012 228 234 232
 0.164727 -0.111794   1.58159 33 46 18
0.0123707  0.415732   1.65772 217 196 45
 0.286624 -0.125975   1.43483 135 209 112
-0.372384 -0.162731   1.36954 7 7 7
0.443981 0.378733  1.67546 145 146 140
0.132348 0.017996  1.57605 120 192 106
-0.0820842   0.430701    1.60547 31 28 21
 -0.203922 -0.0621424    1.41484 219 225 225
  0.031439 -0.0121118    1.44849 216 140 150
 -0.10576 -0.112056   1.45376 227 235 238
 0.266268 -0.218777   1.43194 47 39 28
-0.218568  0.278148   1.59521 26 31 27
 0.162194 -0.172841   1.40948 49 35 22
-0.027873  0.455752     1.651 227 230 77
-0.0287709   0.455237    1.65585 227 230 77
0.192092 0.474475  1.62455 27 24 19
  0.437421 -0.0168717    1.50953 192 212 211
0.0170149 -0.144745   1.45578 107 91 75
 0.335618 -0.115329   1.47231 143 215 115
 0.509629 0.0554262   1.68541 54 37 19
0.0842582  0.116768   1.53946 24 25 19
0.383987 0.371976  1.67965 111 181 95
0.372115 0.440995  1.65258 15 20 16
0.0306619  0.469783   1.64606 236 237 74
0.0654343  0.505151   1.64583 22 13 0
 0.241271 -0.247378   1.41448 202 217 214
0.0386355 0.0412225   1.56082 227 136 167
-0.216953  0.593956   1.62557 102 111 106
-0.0323437   0.232904    1.50702 209 210 205
-0.0015607  -0.125015    1.49548 233 240 246
